NCOLS 450
NROWS 30
XLLCORNER -3.100005955
YLLCORNER 6.175004325
CELLSIZE 0.00833333 
NODATA_value -9999 
0.0153 0.0154 0.0155 0.0156 0.0156 0.0156 0.0156 0.0156 0.0155 0.0154 0.0154 0.0154 0.0154 0.0154 0.0155 0.0152 0.0144 0.0137 0.0136 0.016 0.0228 0.0319 0.0406 0.0429 0.0337 0.0308 0.0306 0.0317 0.0321 0.0311 0.0288 0.0228 0.0225 0.0227 0.0228 0.0228 0.0226 0.0221 0.021 0.0196 0.0183 0.0173 0.0168 0.0165 0.0162 0.0159 0.0157 0.0156 0.0155 0.0156 0.0156 0.0156 0.0156 0.0156 0.0156 0.0162 0.0171 0.018 0.019 0.0199 0.0207 0.0214 0.022 0.0224 0.0227 0.0228 0.0228 0.0228 0.0229 0.0229 0.0228 0.0224 0.0207 0.0186 0.0167 0.0152 0.0152 0.0152 0.0143 0.0135 0.0138 0.0138 0.014 0.0154 0.0201 0.0275 0.0367 0.0428 0.0466 0.0424 0.0336 0.0274 0.024 0.0228 0.0221 0.021 0.0199 0.0189 0.0181 0.0176 0.0172 0.0169 0.0167 0.0166 0.0166 0.0167 0.0167 0.0168 0.0167 0.0166 0.0165 0.0163 0.0161 0.016 0.016 0.0157 0.0155 0.0153 0.0152 0.0153 0.0153 0.0154 0.0154 0.0154 0.0153 0.0152 0.0147 0.0148 0.0152 0.0152 0.0153 0.0161 0.0176 0.0196 0.0217 0.0228 0.023 0.0228 0.0227 0.0228 0.0228 0.0228 0.0228 0.0228 0.0227 0.0227 0.0228 0.0228 0.0228 0.0228 0.0228 0.0233 0.0225 0.0195 0.0176 0.0179 0.0187 0.0198 0.021 0.022 0.0228 0.0231 0.0231 0.0231 0.0231 0.023 0.0228 0.0219 0.0208 0.0199 0.0192 0.0187 0.0185 0.0185 0.019 0.0196 0.0203 0.0209 0.0215 0.0219 0.0222 0.0224 0.0225 0.0226 0.0226 0.0226 0.0226 0.0228 0.0235 0.0244 0.0253 0.0262 0.0269 0.0274 0.0278 0.0282 0.0287 0.0293 0.03 0.0309 0.0293 0.0275 0.0272 0.044 0.0263 0.0491 0.0479 0.0458 0.0467 0.0424 0.0315 0.0241 0.0208 0.0188 0.0173 0.0155 0.0154 0.0156 0.0158 0.0176 0.0196 0.0224 0.0231 0.0228 0.0226 0.0226 0.0226 0.0228 0.023 0.023 0.0229 0.0228 0.0238 0.025 0.0232 0.0209 0.0188 0.0174 0.016 0.0159 0.0158 0.0158 0.0158 0.0158 0.0155 0.0152 0.016 0.0167 0.017 0.0168 0.0164 0.0167 0.017 0.0173 0.0176 0.0179 0.0182 0.0187 0.0193 0.02 0.0209 0.0223 0.0243 0.0249 0.0229 0.0229 0.0228 0.023 0.0231 0.023 0.0233 0.022 0.0216 0.0214 0.0215 0.021 0.0197 0.0191 0.0174 0.0214 0.0267 0.0278 0.0256 0.023 0.021 0.0197 0.0189 0.0184 0.0179 0.0181 0.0187 0.0192 0.0194 0.0194 0.0193 0.0193 0.0196 0.0199 0.02 0.0197 0.0189 0.0178 0.0167 0.016 0.016 0.017 0.0187 0.0213 0.026 0.0334 0.0406 0.0413 0.05 0.0466 0.0473 0.0576 0.0584 0.0565 0.0544 0.0535 0.0545 0.0565 0.0587 0.0608 0.0619 0.0607 0.0564 0.0518 0.0484 0.0465 0.0457 0.0455 0.0456 0.0456 0.0456 0.0456 0.045 0.0439 0.0421 0.0389 0.0342 0.0299 0.0304 0.0306 0.0307 0.0308 0.0308 0.0309 0.031 0.0312 0.0313 0.0312 0.0309 0.0306 0.0304 0.0304 0.0304 0.0292 0.0263 0.0232 0.0216 0.0194 0.0175 0.0163 0.0151 0.0127 0.0103 0.0084 0.0084 0.0084 0.0084 0.0084 0.0084 0.0084 0.0084 0.0084 0.0084 0.0084 0.0084 0.0119 0.0184 0.0304 0.0184 0.0123 0.0084 0.0084 0.0084 0.0084 0.0107 0.0144 0.0152 0.0153 0.0152 0.0144 0.013 0.0113 0.0097 0.0087 0.0081 0.0082 0.0084 0.0086 0.0089 0.0094 0.01 0.0107 0.0112 0.0113 0.011 0.01 0.0096 0.0095 0.0096 0.0092 0.0087 0.0085 0.0081 0.0078 0.0076 0.0075 0.0073 0.0072 0.0074 0.0075 0.0076 0.0077 0.0075 0.007 0.0069 0.0068 0.0069 0.007 0.0071 0.0073 0.0074 0.0075 0.0076 0.0076 0.0075 0.0076 0.0076 0.0076 0.0076 0.0076 0.0076 0.0075 0.0074 0.0073 0.0073 0.0073
0.0153 0.0153 0.0155 0.0156 0.0156 0.0156 0.0156 0.0156 0.0155 0.0155 0.0154 0.0154 0.0154 0.0154 0.0154 0.0152 0.0145 0.0139 0.0136 0.016 0.0227 0.0307 0.0369 0.0337 0.026 0.0252 0.0273 0.03 0.0308 0.0289 0.0252 0.0228 0.0228 0.0228 0.0228 0.0228 0.0228 0.0224 0.0208 0.0189 0.0172 0.0162 0.0158 0.0156 0.0155 0.0154 0.0152 0.0153 0.0154 0.0155 0.0155 0.0156 0.0155 0.0155 0.0155 0.0158 0.0167 0.0176 0.0186 0.0197 0.0206 0.0214 0.022 0.0225 0.0228 0.0229 0.023 0.023 0.023 0.0228 0.0225 0.0218 0.0203 0.0185 0.0168 0.0156 0.0154 0.0155 0.0151 0.0139 0.0135 0.0137 0.014 0.0154 0.0205 0.0294 0.0424 0.0475 0.0479 0.0424 0.0331 0.0267 0.024 0.0233 0.0227 0.021 0.0195 0.0183 0.0175 0.0169 0.0165 0.0162 0.016 0.0159 0.0158 0.016 0.0161 0.0163 0.0163 0.0163 0.0162 0.0161 0.016 0.0158 0.0157 0.0155 0.0153 0.0152 0.0151 0.0152 0.0152 0.0153 0.0154 0.0153 0.0152 0.0149 0.0147 0.0149 0.0152 0.0152 0.0153 0.0156 0.0164 0.0181 0.0202 0.0219 0.0228 0.0229 0.0228 0.0228 0.0228 0.0228 0.0228 0.0228 0.0228 0.0228 0.0228 0.0228 0.0227 0.0227 0.0227 0.0227 0.0209 0.018 0.0171 0.0175 0.0184 0.0195 0.0208 0.0219 0.0228 0.023 0.023 0.023 0.023 0.0228 0.0222 0.0213 0.0202 0.0193 0.0187 0.0184 0.0183 0.0189 0.0195 0.0202 0.0209 0.0215 0.022 0.0224 0.0226 0.0226 0.0227 0.0227 0.0227 0.0226 0.0227 0.0228 0.0233 0.0241 0.0249 0.0256 0.026 0.0263 0.0265 0.0268 0.0274 0.0288 0.0314 0.037 0.0424 0.0363 0.0424 0.0427 0.0259 0.0366 0.0398 0.0415 0.0424 0.0337 0.0275 0.0227 0.0198 0.0179 0.0165 0.0152 0.0152 0.0152 0.0166 0.0182 0.0201 0.0221 0.0228 0.0226 0.0224 0.0223 0.0224 0.0228 0.0231 0.0232 0.023 0.0228 0.0249 0.0303 0.025 0.0219 0.0199 0.0184 0.0171 0.0164 0.0156 0.0154 0.0155 0.0154 0.0152 0.0149 0.0152 0.0156 0.016 0.016 0.0163 0.0167 0.0171 0.0176 0.0181 0.0184 0.0189 0.0196 0.0205 0.0213 0.0221 0.0241 0.0289 0.0285 0.0237 0.0227 0.0228 0.023 0.0228 0.0221 0.0217 0.0209 0.0209 0.0205 0.0204 0.02 0.0186 0.0174 0.0197 0.0226 0.0269 0.027 0.0247 0.0221 0.0202 0.0189 0.0182 0.0178 0.0177 0.0181 0.0187 0.0191 0.0192 0.0191 0.0188 0.0188 0.019 0.0194 0.0196 0.0196 0.019 0.0181 0.0171 0.0163 0.0161 0.0165 0.0174 0.0188 0.0212 0.0242 0.026 0.026 0.0323 0.0337 0.0424 0.0507 0.0526 0.0512 0.0491 0.048 0.0501 0.0523 0.0548 0.0574 0.0593 0.0582 0.0538 0.0495 0.0471 0.0459 0.0456 0.0457 0.0462 0.0462 0.0457 0.0456 0.0442 0.0418 0.0386 0.0348 0.0314 0.0302 0.0304 0.0305 0.0304 0.0303 0.0304 0.0305 0.0307 0.0309 0.0311 0.0311 0.0309 0.0308 0.0308 0.0309 0.0309 0.0301 0.0267 0.023 0.0209 0.0186 0.0165 0.0152 0.0139 0.012 0.01 0.0084 0.0084 0.0084 0.0084 0.0084 0.0084 0.0084 0.0084 0.0084 0.0084 0.0084 0.0119 0.0135 0.0171 0.0224 0.0163 0.0116 0.0084 0.0084 0.0084 0.0084 0.0097 0.0145 0.0152 0.0152 0.0148 0.0138 0.0122 0.0105 0.0087 0.0079 0.0079 0.0079 0.008 0.0081 0.0083 0.0087 0.0092 0.0098 0.0102 0.0104 0.0102 0.0096 0.0093 0.0096 0.0107 0.0107 0.0087 0.0083 0.008 0.0076 0.0075 0.0075 0.0073 0.0071 0.0073 0.0075 0.0076 0.0075 0.0073 0.0069 0.0069 0.0069 0.0069 0.007 0.0071 0.0072 0.0074 0.0075 0.0075 0.0075 0.0076 0.0075 0.0075 0.0076 0.0076 0.0076 0.0076 0.0076 0.0075 0.0074 0.0072 0.0072
0.0152 0.0153 0.0154 0.0155 0.0156 0.0156 0.0156 0.0155 0.0155 0.0154 0.0154 0.0154 0.0153 0.0153 0.0152 0.0152 0.0144 0.0136 0.0135 0.0161 0.0227 0.0299 0.0364 0.031 0.0257 0.023 0.0248 0.0273 0.0282 0.0249 0.0231 0.0222 0.0224 0.0227 0.0228 0.0228 0.023 0.0227 0.0206 0.0181 0.0161 0.0152 0.0152 0.0152 0.0152 0.0152 0.0151 0.0152 0.0153 0.0153 0.0154 0.0155 0.0155 0.0154 0.0153 0.0154 0.0161 0.0172 0.0184 0.0197 0.0207 0.0216 0.0221 0.0225 0.0228 0.023 0.0231 0.0231 0.023 0.0228 0.0221 0.0211 0.0198 0.0182 0.0168 0.0158 0.0155 0.0155 0.0152 0.0142 0.0134 0.0137 0.0143 0.0153 0.019 0.026 0.0391 0.0466 0.0459 0.0388 0.0302 0.0243 0.0228 0.0227 0.0216 0.0198 0.0183 0.0174 0.0167 0.0162 0.0159 0.0156 0.0154 0.0153 0.0152 0.0154 0.0156 0.0158 0.0159 0.016 0.016 0.0159 0.0158 0.0157 0.0156 0.0155 0.0153 0.0153 0.0152 0.015 0.015 0.0152 0.0152 0.0152 0.0149 0.0147 0.0146 0.0149 0.0151 0.0152 0.0151 0.0151 0.0152 0.0165 0.0188 0.0211 0.0228 0.0232 0.0231 0.023 0.0229 0.0228 0.0228 0.0228 0.0228 0.0228 0.0228 0.0226 0.0223 0.022 0.0217 0.021 0.0191 0.0163 0.0166 0.0171 0.018 0.0192 0.0205 0.0217 0.0225 0.0228 0.0228 0.0228 0.0228 0.0223 0.0214 0.0205 0.0195 0.0188 0.0183 0.0181 0.0188 0.0194 0.0202 0.0209 0.0215 0.022 0.0225 0.0228 0.0228 0.0228 0.0227 0.0227 0.0227 0.0227 0.0228 0.0228 0.0232 0.0238 0.0245 0.0249 0.0252 0.0252 0.0252 0.0254 0.0261 0.0279 0.0314 0.0381 0.0446 0.0451 0.0487 0.0491 0.044 0.0253 0.0299 0.0328 0.033 0.0283 0.024 0.021 0.0188 0.0172 0.016 0.0152 0.0151 0.0152 0.0165 0.0181 0.0197 0.0212 0.0219 0.0219 0.0218 0.0217 0.0219 0.0223 0.0228 0.0233 0.0231 0.0227 0.0229 0.0244 0.0235 0.0222 0.0209 0.0197 0.0188 0.0181 0.0166 0.0152 0.0152 0.0153 0.0152 0.015 0.0153 0.0152 0.0155 0.0161 0.0166 0.017 0.0174 0.0179 0.0183 0.0188 0.0196 0.0206 0.022 0.0232 0.0228 0.0241 0.026 0.0245 0.0227 0.0222 0.0225 0.0228 0.0224 0.0216 0.0209 0.0203 0.0202 0.0199 0.0194 0.0196 0.0178 0.0174 0.0189 0.0231 0.0262 0.026 0.0238 0.0213 0.0195 0.0182 0.0176 0.0174 0.0177 0.018 0.0185 0.0188 0.0189 0.0186 0.0183 0.0181 0.0182 0.0186 0.019 0.0191 0.0188 0.0181 0.0172 0.0165 0.0164 0.0167 0.0173 0.0182 0.0193 0.0202 0.0205 0.0205 0.0232 0.0264 0.0337 0.0443 0.0468 0.0458 0.0439 0.0426 0.0459 0.0477 0.0496 0.0516 0.0528 0.052 0.0492 0.0463 0.0456 0.0457 0.046 0.0474 0.0481 0.0478 0.0469 0.0456 0.0436 0.0403 0.0361 0.032 0.0321 0.0305 0.0306 0.0305 0.0303 0.0301 0.0301 0.0303 0.0305 0.0307 0.0309 0.031 0.0309 0.0309 0.0308 0.0308 0.0304 0.0294 0.0265 0.0232 0.0211 0.0182 0.0154 0.0141 0.0127 0.011 0.0093 0.0084 0.0084 0.0084 0.0084 0.0084 0.0084 0.0084 0.0084 0.0084 0.0139 0.0145 0.0148 0.0145 0.0153 0.0161 0.0084 0.01 0.0084 0.0084 0.0084 0.0084 0.0099 0.0146 0.0152 0.015 0.0143 0.0132 0.0117 0.0099 0.0078 0.0078 0.0078 0.0078 0.0078 0.0078 0.0079 0.0082 0.0085 0.009 0.0093 0.0096 0.0096 0.0094 0.009 0.0098 0.0128 0.0143 0.0114 0.0081 0.0079 0.0075 0.0073 0.0076 0.0073 0.0071 0.0071 0.0073 0.0074 0.0073 0.0071 0.0069 0.0069 0.0069 0.0069 0.007 0.0071 0.0072 0.0074 0.0075 0.0075 0.0075 0.0076 0.0075 0.0075 0.0076 0.0076 0.0076 0.0076 0.0076 0.0075 0.0074 0.0072 0.0071
0.0152 0.0153 0.0154 0.0155 0.0155 0.0155 0.0155 0.0155 0.0154 0.0154 0.0153 0.0153 0.0153 0.0152 0.0151 0.0149 0.0142 0.0133 0.0135 0.0163 0.0233 0.0302 0.0309 0.026 0.0231 0.0217 0.0228 0.0242 0.0238 0.0225 0.0217 0.0217 0.0222 0.0227 0.0228 0.0228 0.0228 0.022 0.02 0.0175 0.0153 0.0149 0.0152 0.0152 0.0152 0.0152 0.0151 0.0152 0.0152 0.0153 0.0153 0.0154 0.0154 0.0153 0.0153 0.0153 0.0158 0.0169 0.0184 0.0198 0.021 0.0218 0.0223 0.0227 0.0228 0.0229 0.0231 0.0231 0.0228 0.0223 0.0215 0.0205 0.0192 0.0178 0.0166 0.0157 0.0154 0.0153 0.0152 0.0143 0.0134 0.0138 0.0151 0.0156 0.0187 0.0254 0.0367 0.045 0.0424 0.0337 0.026 0.0221 0.021 0.0206 0.0196 0.0179 0.0168 0.0164 0.016 0.0157 0.0154 0.0152 0.0152 0.0152 0.0151 0.0152 0.0153 0.0154 0.0156 0.0156 0.0157 0.0157 0.0157 0.0157 0.0157 0.0157 0.0157 0.0157 0.0157 0.0155 0.0152 0.0149 0.0148 0.0147 0.0146 0.0145 0.0145 0.0148 0.0152 0.0153 0.0152 0.0152 0.0149 0.0153 0.0177 0.0204 0.0227 0.0233 0.0232 0.023 0.0229 0.0228 0.0228 0.0228 0.0228 0.0228 0.0228 0.0221 0.0215 0.0209 0.0202 0.0192 0.0175 0.0158 0.0161 0.0167 0.0176 0.0188 0.0201 0.0213 0.0223 0.0228 0.0228 0.0228 0.0223 0.0215 0.0205 0.0195 0.0188 0.0182 0.0179 0.0186 0.0193 0.0201 0.0209 0.0216 0.0221 0.0225 0.0228 0.0228 0.0228 0.0228 0.0228 0.0228 0.0227 0.0227 0.0228 0.0228 0.0231 0.0236 0.0241 0.0243 0.0244 0.0242 0.0241 0.0242 0.0249 0.0268 0.0304 0.0364 0.0441 0.0471 0.048 0.0449 0.0374 0.0249 0.0283 0.0284 0.0273 0.025 0.0225 0.0201 0.0183 0.0169 0.0159 0.0152 0.015 0.0152 0.0162 0.0176 0.0189 0.02 0.0206 0.0208 0.0208 0.0207 0.0208 0.0212 0.0219 0.0227 0.0222 0.0206 0.0215 0.0224 0.0232 0.0235 0.0225 0.0211 0.0205 0.0205 0.0181 0.0158 0.015 0.0152 0.015 0.015 0.0151 0.0156 0.0168 0.0175 0.0177 0.0178 0.0179 0.0181 0.0185 0.0192 0.02 0.0214 0.0233 0.0265 0.0232 0.0234 0.0239 0.0228 0.0219 0.0217 0.0218 0.022 0.0216 0.021 0.0203 0.0198 0.0195 0.0192 0.0189 0.0191 0.0178 0.0167 0.0185 0.0222 0.0255 0.0253 0.0232 0.0209 0.019 0.0176 0.0171 0.0172 0.0174 0.0177 0.0181 0.0183 0.0183 0.018 0.0176 0.0174 0.0174 0.0178 0.0182 0.0184 0.0181 0.0176 0.0169 0.0166 0.0167 0.0171 0.0178 0.0185 0.0192 0.0195 0.0196 0.0194 0.0207 0.0242 0.0327 0.044 0.0437 0.0433 0.043 0.0425 0.042 0.0434 0.0444 0.0459 0.0467 0.0465 0.0459 0.0452 0.0457 0.0475 0.0496 0.0513 0.0514 0.0505 0.0485 0.046 0.0438 0.04 0.0357 0.0325 0.0328 0.0323 0.0319 0.0314 0.0307 0.0301 0.0302 0.0303 0.0305 0.0307 0.0309 0.0309 0.0309 0.0308 0.0307 0.0307 0.0304 0.0291 0.0268 0.0243 0.0223 0.0189 0.0155 0.014 0.0123 0.0103 0.0084 0.0084 0.0084 0.0084 0.0084 0.0084 0.0084 0.0084 0.0084 0.0145 0.0198 0.0179 0.016 0.0147 0.0143 0.0133 0.0084 0.0084 0.0084 0.0084 0.0084 0.0084 0.0119 0.015 0.0154 0.0148 0.0138 0.0125 0.0111 0.0096 0.0078 0.0076 0.0077 0.0077 0.0076 0.0076 0.0077 0.0078 0.0081 0.0084 0.0087 0.0089 0.009 0.009 0.0087 0.0107 0.0146 0.0157 0.0145 0.011 0.0078 0.0075 0.0076 0.0093 0.0099 0.007 0.0069 0.0071 0.0072 0.0071 0.0069 0.0069 0.0069 0.0069 0.0069 0.007 0.0071 0.0073 0.0074 0.0075 0.0075 0.0076 0.0076 0.0076 0.0075 0.0076 0.0076 0.0076 0.0076 0.0076 0.0075 0.0074 0.0072 0.0071
0.0151 0.0152 0.0153 0.0154 0.0155 0.0155 0.0155 0.0154 0.0154 0.0153 0.0153 0.0153 0.0152 0.0152 0.0151 0.0149 0.0143 0.0134 0.0134 0.016 0.0221 0.0261 0.0251 0.0225 0.0207 0.0202 0.0212 0.0224 0.0218 0.0211 0.021 0.0214 0.0221 0.0228 0.0229 0.0228 0.0225 0.0216 0.0198 0.0176 0.0158 0.0152 0.0152 0.0152 0.0152 0.0152 0.0152 0.0152 0.0152 0.0152 0.0153 0.0153 0.0153 0.0153 0.0152 0.0152 0.0154 0.0169 0.0187 0.0203 0.0214 0.0221 0.0226 0.0228 0.0228 0.0229 0.0229 0.0228 0.0222 0.0216 0.0207 0.0197 0.0185 0.0173 0.0162 0.0154 0.0152 0.0152 0.0154 0.0151 0.0133 0.0141 0.0148 0.0154 0.0187 0.0246 0.0337 0.0424 0.0337 0.0281 0.0233 0.0206 0.0195 0.019 0.018 0.0162 0.016 0.0158 0.0156 0.0153 0.0152 0.0152 0.0152 0.0152 0.0152 0.0152 0.0152 0.0152 0.0153 0.0154 0.0154 0.0155 0.0156 0.0158 0.016 0.0162 0.0165 0.0167 0.0168 0.0167 0.0164 0.0163 0.0159 0.0152 0.0152 0.0148 0.0145 0.0146 0.0152 0.0153 0.0152 0.0152 0.0152 0.0154 0.0172 0.0196 0.0217 0.0228 0.0231 0.0228 0.0228 0.0228 0.0228 0.0228 0.0225 0.0221 0.0217 0.0209 0.0201 0.0194 0.0187 0.0178 0.0162 0.0152 0.0155 0.0162 0.017 0.0182 0.0195 0.0207 0.0219 0.0228 0.0231 0.0228 0.0217 0.0205 0.0193 0.0185 0.0181 0.0177 0.0183 0.0191 0.0199 0.0207 0.0216 0.0223 0.0226 0.0228 0.0229 0.0229 0.0228 0.0228 0.0228 0.0228 0.0228 0.0228 0.0228 0.0228 0.0231 0.0234 0.0237 0.0238 0.0238 0.0235 0.0233 0.0234 0.0242 0.0259 0.029 0.0337 0.0426 0.0461 0.0446 0.0383 0.0313 0.0243 0.0252 0.0247 0.0234 0.0227 0.0211 0.0194 0.0179 0.0168 0.0159 0.0153 0.0149 0.0152 0.016 0.017 0.018 0.0188 0.0193 0.0195 0.0195 0.0193 0.0192 0.0193 0.0198 0.0202 0.0194 0.0204 0.0215 0.023 0.026 0.0286 0.0256 0.0219 0.0206 0.022 0.019 0.0172 0.0149 0.0149 0.0149 0.016 0.017 0.0194 0.0207 0.0204 0.0196 0.0189 0.0185 0.0184 0.0186 0.0191 0.02 0.0213 0.0228 0.0245 0.0232 0.0228 0.0227 0.0219 0.0213 0.021 0.021 0.021 0.0208 0.0203 0.0198 0.0193 0.019 0.0187 0.0184 0.0183 0.0185 0.0159 0.0173 0.0205 0.0237 0.0245 0.023 0.0206 0.0186 0.017 0.0168 0.0168 0.017 0.0171 0.0174 0.0176 0.0176 0.0174 0.017 0.0167 0.0167 0.017 0.0174 0.0175 0.0173 0.0168 0.0165 0.0165 0.0168 0.0173 0.0178 0.0182 0.0186 0.0189 0.0192 0.0198 0.0204 0.0236 0.0319 0.0457 0.0593 0.0452 0.0494 0.0479 0.0445 0.0415 0.0412 0.0422 0.0438 0.0444 0.0456 0.0457 0.0471 0.0501 0.0541 0.0562 0.0551 0.0533 0.0505 0.0474 0.0446 0.0398 0.0351 0.033 0.035 0.0348 0.0341 0.0331 0.0318 0.0306 0.0304 0.0304 0.0306 0.0308 0.0309 0.031 0.0309 0.0307 0.0304 0.0304 0.03 0.0287 0.0267 0.0247 0.0227 0.0197 0.0168 0.015 0.0126 0.0103 0.0084 0.0084 0.0084 0.0084 0.0084 0.0084 0.0084 0.0084 0.0084 0.0186 0.0272 0.0234 0.0183 0.0156 0.0148 0.014 0.0092 0.0084 0.0084 0.0084 0.0084 0.0097 0.0141 0.0152 0.0152 0.0143 0.0131 0.0117 0.0103 0.009 0.0078 0.0076 0.0077 0.0077 0.0076 0.0076 0.0076 0.0077 0.0078 0.008 0.0082 0.0083 0.0083 0.0081 0.0084 0.0115 0.015 0.0152 0.0142 0.011 0.0077 0.0074 0.0083 0.011 0.0131 0.0069 0.0069 0.007 0.0071 0.007 0.0069 0.0069 0.0069 0.0069 0.007 0.0071 0.0072 0.0073 0.0074 0.0075 0.0075 0.0076 0.0076 0.0076 0.0075 0.0075 0.0076 0.0076 0.0075 0.0075 0.0074 0.0073 0.0072 0.0071
0.015 0.0152 0.0153 0.0154 0.0154 0.0154 0.0154 0.0153 0.0153 0.0153 0.0153 0.0152 0.0152 0.0152 0.0152 0.0152 0.015 0.015 0.0134 0.0151 0.0202 0.0224 0.0215 0.0196 0.0185 0.0184 0.019 0.0198 0.0198 0.0197 0.0202 0.021 0.022 0.0228 0.0228 0.0227 0.0224 0.0215 0.0199 0.018 0.0164 0.0155 0.0152 0.0152 0.0152 0.0152 0.0152 0.0152 0.0152 0.0152 0.0152 0.0153 0.0153 0.0153 0.0152 0.0151 0.0153 0.0173 0.0195 0.0211 0.0221 0.0225 0.0228 0.0229 0.0228 0.0228 0.0228 0.0221 0.0213 0.0206 0.0198 0.0188 0.0178 0.0168 0.0159 0.0152 0.0151 0.0152 0.0152 0.0142 0.0132 0.0143 0.0152 0.0165 0.0199 0.025 0.0304 0.0336 0.0292 0.0252 0.0223 0.0199 0.0186 0.0179 0.0171 0.0157 0.0156 0.0154 0.0153 0.0152 0.0152 0.0152 0.0152 0.0152 0.0152 0.0152 0.0152 0.0152 0.0152 0.0152 0.0153 0.0153 0.0156 0.016 0.0165 0.017 0.0175 0.0181 0.0184 0.0183 0.0178 0.0173 0.0165 0.0157 0.0153 0.0152 0.0144 0.0144 0.0152 0.0153 0.0152 0.0151 0.015 0.0152 0.0168 0.0189 0.0208 0.0221 0.0228 0.0227 0.0227 0.0228 0.023 0.0228 0.022 0.021 0.0202 0.0193 0.0184 0.0176 0.017 0.0167 0.0151 0.0152 0.0154 0.0158 0.0165 0.0174 0.0186 0.0198 0.021 0.0221 0.0227 0.0218 0.0205 0.0192 0.0181 0.0176 0.0174 0.0181 0.0187 0.0195 0.0204 0.0213 0.0221 0.0228 0.0228 0.0229 0.0229 0.0229 0.0228 0.0228 0.0228 0.0228 0.0228 0.0228 0.0228 0.0229 0.0231 0.0233 0.0235 0.0235 0.0233 0.0231 0.023 0.0233 0.0243 0.0264 0.0301 0.0357 0.0428 0.0456 0.0421 0.0337 0.0285 0.0238 0.0239 0.0228 0.0219 0.0212 0.0202 0.0189 0.0177 0.0167 0.0159 0.0153 0.0148 0.0152 0.0158 0.0165 0.0172 0.0177 0.018 0.0181 0.0181 0.0179 0.0176 0.0171 0.0176 0.018 0.02 0.0221 0.0236 0.026 0.0337 0.044 0.0299 0.0211 0.0169 0.0174 0.0158 0.0153 0.0147 0.0147 0.017 0.0196 0.0229 0.0258 0.0263 0.0241 0.0217 0.02 0.0188 0.0184 0.0183 0.0187 0.0194 0.0204 0.0214 0.0223 0.0218 0.0215 0.0213 0.0208 0.0204 0.0202 0.0202 0.0202 0.02 0.0197 0.0192 0.0188 0.0184 0.0181 0.0179 0.0175 0.0182 0.0167 0.0156 0.0184 0.0217 0.0238 0.023 0.0208 0.0185 0.0164 0.0164 0.0165 0.0165 0.0165 0.0167 0.0168 0.0168 0.0167 0.0164 0.0162 0.0162 0.0164 0.0166 0.0167 0.0166 0.0163 0.0164 0.0166 0.0169 0.0175 0.018 0.0185 0.0188 0.0191 0.0193 0.0195 0.0199 0.0217 0.0259 0.0337 0.0472 0.0505 0.0593 0.0534 0.0476 0.0438 0.0421 0.0406 0.0402 0.0419 0.0448 0.0456 0.0474 0.0513 0.0576 0.0604 0.0576 0.055 0.051 0.0466 0.043 0.0381 0.0336 0.0364 0.0377 0.0377 0.0369 0.0355 0.0338 0.032 0.0304 0.0304 0.0306 0.0309 0.0311 0.0311 0.031 0.0308 0.0306 0.0304 0.0298 0.0281 0.026 0.0242 0.0226 0.02 0.0174 0.0152 0.013 0.0109 0.0092 0.0083 0.0084 0.0084 0.0084 0.0084 0.0084 0.0084 0.0141 0.0217 0.028 0.0266 0.0225 0.019 0.0161 0.0144 0.01 0.0084 0.0084 0.0084 0.0084 0.0122 0.0151 0.0152 0.0146 0.0135 0.0121 0.0107 0.0095 0.0085 0.0077 0.0076 0.0077 0.0077 0.0077 0.0076 0.0076 0.0076 0.0077 0.0077 0.0079 0.008 0.0079 0.0075 0.0081 0.0133 0.0155 0.0152 0.0141 0.0108 0.0077 0.0073 0.008 0.0092 0.009 0.0068 0.0067 0.0068 0.0069 0.0069 0.0068 0.0069 0.0069 0.0069 0.007 0.0071 0.0072 0.0073 0.0074 0.0075 0.0075 0.0076 0.0076 0.0076 0.0076 0.0075 0.0075 0.0075 0.0075 0.0074 0.0073 0.0072 0.0071 0.0071
0.015 0.0152 0.0153 0.0154 0.0153 0.0153 0.0153 0.0153 0.0153 0.0152 0.0152 0.0152 0.0152 0.0152 0.0152 0.0152 0.0152 0.0155 0.0149 0.0133 0.0168 0.02 0.0172 0.0166 0.0164 0.0165 0.017 0.0175 0.0178 0.0184 0.0193 0.0205 0.0218 0.0228 0.0228 0.0228 0.0225 0.0217 0.0203 0.0185 0.0167 0.0157 0.0153 0.0151 0.0151 0.0152 0.0152 0.0152 0.0152 0.0152 0.0151 0.0152 0.0152 0.0152 0.015 0.0153 0.0168 0.0189 0.021 0.0221 0.0228 0.0228 0.0229 0.0228 0.0223 0.0216 0.0215 0.0207 0.0199 0.0195 0.0188 0.0181 0.0172 0.0164 0.0157 0.0153 0.0152 0.015 0.0144 0.0132 0.0132 0.015 0.016 0.0184 0.0233 0.0299 0.0304 0.0302 0.0267 0.0231 0.0209 0.019 0.0179 0.0172 0.0165 0.0154 0.0153 0.0153 0.0153 0.0152 0.0152 0.0152 0.0152 0.0152 0.0152 0.0152 0.0152 0.0152 0.0152 0.0151 0.0152 0.0153 0.0157 0.0164 0.0171 0.0179 0.0188 0.0198 0.0206 0.0204 0.0194 0.0183 0.0171 0.016 0.0152 0.0148 0.0143 0.0142 0.0147 0.0152 0.0152 0.0152 0.0152 0.0155 0.0167 0.0183 0.0199 0.0211 0.0218 0.022 0.0222 0.0224 0.0227 0.0219 0.0207 0.0195 0.0184 0.0175 0.0168 0.016 0.0152 0.0152 0.015 0.0152 0.0153 0.0154 0.0158 0.0163 0.0174 0.0184 0.0195 0.0203 0.0204 0.0197 0.0188 0.0179 0.017 0.0172 0.0177 0.0183 0.019 0.0198 0.0207 0.0216 0.0223 0.0228 0.0229 0.0229 0.0229 0.0229 0.0228 0.0228 0.0228 0.0228 0.0227 0.0228 0.0229 0.023 0.0231 0.0233 0.0234 0.0233 0.0232 0.0231 0.0233 0.024 0.0255 0.0282 0.0325 0.0389 0.0449 0.0461 0.0445 0.0388 0.0319 0.0259 0.0228 0.0218 0.0212 0.0204 0.0196 0.0186 0.0176 0.0167 0.0159 0.0153 0.0147 0.0152 0.0156 0.016 0.0164 0.0167 0.0168 0.0169 0.0168 0.0166 0.0162 0.0152 0.0164 0.0198 0.0235 0.0261 0.0274 0.0298 0.0328 0.0337 0.0253 0.0179 0.0151 0.0152 0.015 0.0145 0.0146 0.0165 0.02 0.0237 0.0284 0.0316 0.0315 0.0279 0.0232 0.0204 0.0188 0.0179 0.0178 0.018 0.0185 0.0191 0.0196 0.02 0.0199 0.0198 0.0198 0.0196 0.0195 0.0195 0.0195 0.0194 0.0193 0.019 0.0187 0.0183 0.0179 0.0175 0.0173 0.017 0.0175 0.0173 0.0151 0.0161 0.0195 0.0222 0.0228 0.0212 0.0188 0.0169 0.0161 0.0161 0.016 0.016 0.0159 0.0159 0.0159 0.016 0.016 0.0158 0.0158 0.0159 0.016 0.0161 0.016 0.0162 0.0164 0.017 0.0177 0.0181 0.0185 0.0189 0.0192 0.0195 0.0197 0.0198 0.02 0.0207 0.0224 0.026 0.0337 0.0424 0.0481 0.0475 0.0457 0.0452 0.0446 0.0441 0.044 0.0397 0.0417 0.0434 0.0454 0.0489 0.0576 0.0601 0.0593 0.0551 0.0491 0.0424 0.0381 0.0341 0.0381 0.0401 0.0408 0.0407 0.0399 0.0383 0.0362 0.034 0.0321 0.0304 0.0304 0.0308 0.0311 0.0312 0.0311 0.0309 0.0309 0.0304 0.0297 0.0274 0.0248 0.0228 0.0213 0.0193 0.0172 0.0152 0.0133 0.0115 0.0101 0.0091 0.0084 0.0084 0.0084 0.0084 0.0084 0.0084 0.0166 0.0238 0.029 0.0285 0.0255 0.0224 0.019 0.0148 0.0096 0.0084 0.0084 0.0084 0.0117 0.0147 0.0156 0.0152 0.0139 0.0124 0.011 0.0096 0.0087 0.008 0.0076 0.0076 0.0077 0.0077 0.0077 0.0076 0.0076 0.0076 0.0076 0.0076 0.0077 0.0077 0.0077 0.0075 0.0082 0.0135 0.0156 0.0158 0.0145 0.0106 0.0076 0.0072 0.0075 0.008 0.0077 0.0068 0.0067 0.0068 0.0068 0.0069 0.0068 0.0068 0.0069 0.0069 0.007 0.0071 0.0072 0.0073 0.0074 0.0075 0.0075 0.0076 0.0076 0.0076 0.0076 0.0076 0.0075 0.0075 0.0074 0.0073 0.0072 0.0071 0.007 0.007
0.0149 0.0152 0.0153 0.0154 0.0153 0.0153 0.0152 0.0152 0.0152 0.0152 0.0152 0.0152 0.0152 0.0152 0.0153 0.0153 0.0154 0.0156 0.0151 0.0132 0.0164 0.0161 0.0153 0.0152 0.0152 0.0153 0.0154 0.0157 0.0162 0.017 0.0183 0.0199 0.0214 0.0224 0.0228 0.0229 0.0228 0.0222 0.0209 0.0187 0.0168 0.0157 0.0152 0.0151 0.0151 0.0152 0.0152 0.0152 0.0152 0.0152 0.015 0.015 0.015 0.0149 0.0154 0.0173 0.0195 0.0211 0.0227 0.0228 0.0228 0.0228 0.0228 0.0224 0.0218 0.021 0.0203 0.0195 0.0186 0.0186 0.018 0.0174 0.0167 0.016 0.0156 0.0154 0.0153 0.0152 0.0145 0.0131 0.0131 0.015 0.0164 0.0207 0.0286 0.0424 0.0337 0.0299 0.026 0.0227 0.0202 0.0185 0.0173 0.0167 0.0161 0.0153 0.0152 0.0152 0.0153 0.0152 0.0152 0.0152 0.0152 0.0152 0.0152 0.0152 0.0152 0.0152 0.0152 0.0151 0.015 0.0152 0.016 0.017 0.0181 0.0191 0.0204 0.022 0.0236 0.0231 0.0212 0.0194 0.0178 0.0166 0.0157 0.0152 0.0142 0.0138 0.014 0.0145 0.0148 0.0152 0.0153 0.0157 0.0166 0.0178 0.019 0.0199 0.0206 0.0208 0.021 0.021 0.0209 0.0201 0.019 0.0177 0.0166 0.0161 0.0156 0.0152 0.0149 0.015 0.0149 0.0152 0.0152 0.0152 0.0152 0.0151 0.0153 0.0166 0.0178 0.0184 0.018 0.0175 0.0172 0.0168 0.017 0.0172 0.0178 0.0185 0.0192 0.0201 0.0209 0.0217 0.0223 0.0227 0.0228 0.0228 0.0228 0.0228 0.0227 0.0227 0.0228 0.0228 0.0227 0.0228 0.023 0.0231 0.0233 0.0234 0.0234 0.0233 0.0233 0.0235 0.0241 0.0254 0.0278 0.0315 0.0369 0.0434 0.0491 0.047 0.0464 0.044 0.0355 0.0278 0.0221 0.0212 0.0203 0.0197 0.0192 0.0184 0.0175 0.0166 0.0158 0.0152 0.0147 0.0148 0.0152 0.0156 0.0158 0.0159 0.0159 0.0158 0.0158 0.0156 0.015 0.0152 0.0178 0.0225 0.0277 0.0298 0.0304 0.0305 0.0293 0.0258 0.0202 0.0156 0.0144 0.0146 0.0143 0.0151 0.0161 0.0204 0.0226 0.0249 0.0288 0.0331 0.0325 0.026 0.0222 0.0196 0.018 0.0171 0.0169 0.017 0.0175 0.0178 0.0178 0.018 0.0181 0.0182 0.0184 0.0185 0.0187 0.0187 0.0188 0.0187 0.0186 0.0184 0.0181 0.0178 0.0174 0.0169 0.0167 0.0167 0.0162 0.018 0.015 0.0145 0.0173 0.0204 0.0221 0.0213 0.0194 0.0173 0.0158 0.0156 0.0156 0.0155 0.0154 0.0152 0.0152 0.0154 0.0156 0.0154 0.0154 0.0155 0.0156 0.0156 0.0157 0.0157 0.0159 0.0167 0.0177 0.0188 0.0198 0.0204 0.0207 0.0209 0.0211 0.0213 0.0201 0.0205 0.0209 0.0222 0.0255 0.0306 0.0337 0.0373 0.0402 0.0448 0.0461 0.0458 0.0439 0.0393 0.0402 0.0409 0.0422 0.0446 0.0489 0.0529 0.0534 0.0508 0.044 0.035 0.0347 0.0392 0.0432 0.0436 0.0436 0.0435 0.0428 0.0411 0.0385 0.0358 0.0331 0.0306 0.0296 0.0303 0.0309 0.0309 0.0309 0.0309 0.0312 0.0309 0.0299 0.0265 0.0233 0.0215 0.02 0.0184 0.0168 0.0152 0.0135 0.012 0.0107 0.0097 0.009 0.0084 0.0084 0.0084 0.0084 0.0128 0.0199 0.0261 0.0302 0.0288 0.026 0.0237 0.0208 0.0154 0.0103 0.0084 0.0084 0.0084 0.0133 0.0151 0.0152 0.0142 0.0126 0.011 0.0096 0.0085 0.0079 0.0076 0.0075 0.0076 0.0076 0.0076 0.0076 0.0076 0.0076 0.0076 0.0076 0.0076 0.0076 0.0076 0.0076 0.0075 0.0074 0.0118 0.0149 0.0152 0.013 0.0094 0.0075 0.0076 0.0071 0.0075 0.0074 0.0072 0.0067 0.0068 0.0068 0.0068 0.0068 0.0068 0.0069 0.007 0.007 0.0071 0.0072 0.0073 0.0074 0.0074 0.0075 0.0075 0.0076 0.0076 0.0076 0.0076 0.0076 0.0075 0.0074 0.0073 0.0071 0.007 0.007 0.007
0.0148 0.0152 0.0153 0.0153 0.0153 0.0152 0.0152 0.0152 0.0152 0.0152 0.0152 0.0152 0.0152 0.0152 0.0153 0.0154 0.0154 0.0152 0.0143 0.0132 0.0147 0.0149 0.015 0.0152 0.015 0.0149 0.0146 0.0146 0.015 0.016 0.0174 0.0192 0.021 0.0223 0.0229 0.023 0.0229 0.0228 0.0216 0.0187 0.0163 0.0154 0.0151 0.0151 0.0151 0.0152 0.0152 0.0153 0.0153 0.0152 0.0149 0.0148 0.0149 0.0156 0.0178 0.0209 0.0234 0.0231 0.0229 0.0228 0.0226 0.0225 0.0224 0.022 0.0214 0.0207 0.0199 0.0192 0.0185 0.0179 0.0174 0.0169 0.0162 0.0156 0.0154 0.0154 0.0154 0.0156 0.0151 0.013 0.013 0.0141 0.0164 0.0232 0.0337 0.0443 0.0393 0.032 0.0265 0.0227 0.0199 0.0181 0.0169 0.0162 0.0157 0.0152 0.0151 0.0152 0.0153 0.0153 0.0152 0.0152 0.0152 0.0152 0.0152 0.0152 0.0152 0.0152 0.0152 0.0151 0.0152 0.0157 0.0168 0.0181 0.0192 0.0204 0.022 0.0244 0.0284 0.0268 0.023 0.0203 0.0185 0.0173 0.0164 0.0158 0.0151 0.0141 0.0138 0.0139 0.0143 0.0149 0.0152 0.0156 0.0163 0.0172 0.0181 0.0188 0.0192 0.0194 0.0193 0.0191 0.0187 0.0181 0.0172 0.0162 0.0152 0.0152 0.0152 0.015 0.0147 0.0148 0.0152 0.0153 0.0153 0.0152 0.0151 0.0151 0.0152 0.0158 0.0166 0.0171 0.0161 0.0163 0.0165 0.0167 0.017 0.0174 0.0179 0.0186 0.0194 0.0203 0.0211 0.0218 0.0224 0.0227 0.0228 0.0228 0.0228 0.0227 0.0227 0.0227 0.0228 0.0228 0.0228 0.023 0.0233 0.0234 0.0235 0.0235 0.0235 0.0235 0.0236 0.0242 0.0254 0.0276 0.0311 0.0362 0.0423 0.0489 0.0576 0.0504 0.045 0.0399 0.0327 0.0265 0.0226 0.021 0.0201 0.0195 0.0189 0.0182 0.0174 0.0166 0.0165 0.0161 0.0154 0.0145 0.0148 0.0152 0.0154 0.0154 0.0152 0.0152 0.0152 0.0152 0.0149 0.0153 0.0185 0.0228 0.0269 0.0301 0.0307 0.0289 0.0245 0.0201 0.0161 0.0142 0.0141 0.0141 0.0146 0.0152 0.0173 0.0221 0.0231 0.023 0.0241 0.0259 0.0256 0.0227 0.0201 0.0182 0.0169 0.0161 0.0159 0.016 0.0166 0.0168 0.0163 0.0165 0.0167 0.0169 0.0174 0.0177 0.018 0.0181 0.0182 0.0181 0.0181 0.0179 0.0177 0.0173 0.017 0.0165 0.0163 0.0163 0.016 0.0164 0.0164 0.0138 0.0154 0.0187 0.021 0.0211 0.0196 0.0174 0.0156 0.0154 0.0153 0.0153 0.0152 0.0151 0.0151 0.0152 0.0153 0.0153 0.0154 0.0155 0.0154 0.0152 0.015 0.0149 0.0152 0.0163 0.0182 0.0207 0.023 0.0242 0.0245 0.0242 0.0237 0.0229 0.0214 0.0204 0.0206 0.0209 0.022 0.0238 0.0261 0.0296 0.0337 0.0424 0.0462 0.0471 0.0455 0.042 0.0388 0.0389 0.0393 0.0406 0.0424 0.0441 0.0448 0.044 0.0355 0.0364 0.0424 0.0448 0.0457 0.0452 0.0451 0.0456 0.0454 0.0436 0.0407 0.0376 0.0346 0.032 0.0302 0.0287 0.03 0.0304 0.0304 0.0304 0.0309 0.0303 0.0283 0.0251 0.0227 0.0207 0.019 0.0174 0.0162 0.015 0.0134 0.0122 0.0111 0.0101 0.0091 0.0084 0.0084 0.0084 0.0096 0.0148 0.0216 0.0264 0.0284 0.0264 0.0231 0.0213 0.0185 0.0141 0.0097 0.0084 0.0084 0.0132 0.0149 0.0156 0.0151 0.0131 0.0111 0.0095 0.0083 0.0076 0.0075 0.0075 0.0075 0.0076 0.0075 0.0075 0.0075 0.0075 0.0075 0.0075 0.0076 0.0076 0.0075 0.0075 0.0075 0.0074 0.0074 0.012 0.015 0.0149 0.0114 0.0078 0.0078 0.0095 0.0072 0.007 0.0071 0.007 0.0067 0.0067 0.0067 0.0068 0.0068 0.0068 0.0069 0.007 0.007 0.0071 0.0071 0.0072 0.0073 0.0074 0.0074 0.0075 0.0076 0.0076 0.0076 0.0076 0.0076 0.0075 0.0074 0.0073 0.0071 0.0069 0.0069 0.0069
0.0145 0.0148 0.0152 0.0152 0.0152 0.0152 0.0152 0.0152 0.0152 0.0152 0.0152 0.0152 0.0152 0.0152 0.0153 0.0154 0.0155 0.0152 0.0142 0.0131 0.014 0.0146 0.0152 0.0152 0.0152 0.0149 0.0144 0.0141 0.0143 0.0152 0.0167 0.0186 0.0206 0.0221 0.023 0.023 0.0228 0.0231 0.0219 0.0179 0.0153 0.015 0.015 0.0151 0.0152 0.0152 0.0152 0.0152 0.0152 0.0147 0.0148 0.0153 0.0168 0.0189 0.0217 0.0254 0.0285 0.0256 0.023 0.0224 0.0221 0.022 0.0219 0.0216 0.0211 0.0205 0.0198 0.0192 0.0185 0.0178 0.0171 0.0165 0.0158 0.0152 0.0152 0.0152 0.0152 0.0156 0.0151 0.013 0.0135 0.0144 0.0176 0.026 0.0388 0.0452 0.0424 0.0334 0.0266 0.0227 0.0199 0.018 0.0167 0.0159 0.0155 0.0152 0.0149 0.015 0.0152 0.0152 0.0153 0.0152 0.0152 0.0153 0.0152 0.015 0.015 0.0151 0.0152 0.0152 0.0155 0.0164 0.018 0.0195 0.0208 0.0217 0.0231 0.0261 0.0298 0.0284 0.0236 0.021 0.0193 0.018 0.017 0.0163 0.0158 0.0151 0.0143 0.0138 0.014 0.0149 0.0152 0.0156 0.0161 0.0167 0.0173 0.0178 0.018 0.018 0.0177 0.0172 0.0167 0.0163 0.016 0.0155 0.0152 0.0152 0.0153 0.0152 0.0147 0.0149 0.015 0.0152 0.0153 0.0152 0.0151 0.015 0.0152 0.0154 0.0156 0.0159 0.016 0.0162 0.0165 0.0168 0.017 0.0175 0.0181 0.0188 0.0197 0.0206 0.0214 0.022 0.0224 0.0227 0.0228 0.0228 0.0227 0.0227 0.0227 0.0228 0.0229 0.0231 0.0233 0.0236 0.0238 0.0239 0.0239 0.0239 0.0238 0.0239 0.0243 0.0252 0.0269 0.0301 0.035 0.0413 0.0484 0.0577 0.0675 0.0489 0.0398 0.0336 0.0283 0.0238 0.0218 0.0206 0.0199 0.0195 0.0188 0.018 0.0173 0.0177 0.018 0.018 0.0171 0.0152 0.0144 0.0147 0.0152 0.0152 0.0152 0.0152 0.0149 0.0147 0.0152 0.016 0.0193 0.0223 0.0241 0.027 0.028 0.0244 0.0199 0.016 0.0141 0.0136 0.0138 0.0142 0.0143 0.0148 0.0166 0.022 0.0228 0.022 0.0216 0.0217 0.0211 0.0195 0.018 0.0168 0.0158 0.0152 0.0152 0.0152 0.016 0.0159 0.0162 0.0166 0.017 0.0171 0.0172 0.0174 0.0176 0.0177 0.0178 0.0178 0.0177 0.0175 0.0173 0.017 0.0166 0.0163 0.016 0.0159 0.0157 0.0156 0.0163 0.0139 0.0146 0.0174 0.0199 0.0205 0.0193 0.0178 0.0164 0.0152 0.0152 0.0152 0.015 0.0151 0.0152 0.0152 0.0155 0.0156 0.0156 0.0157 0.0155 0.015 0.0144 0.0142 0.0147 0.0164 0.0197 0.0245 0.0295 0.0322 0.0326 0.0314 0.0291 0.026 0.0228 0.0211 0.0206 0.021 0.0214 0.0221 0.0231 0.0263 0.0314 0.0396 0.0457 0.0482 0.0477 0.0451 0.0415 0.0382 0.0379 0.0381 0.0378 0.0371 0.0363 0.036 0.0379 0.0424 0.046 0.0473 0.0469 0.0457 0.0458 0.0469 0.0469 0.0453 0.0424 0.0393 0.0364 0.0338 0.0317 0.0299 0.0277 0.03 0.03 0.03 0.0302 0.0286 0.0262 0.0233 0.0221 0.0202 0.0181 0.0163 0.0151 0.0137 0.013 0.0123 0.0113 0.0103 0.0092 0.0083 0.0084 0.0084 0.0116 0.0164 0.0223 0.026 0.0264 0.0231 0.0182 0.0162 0.0144 0.0108 0.0082 0.0083 0.0095 0.014 0.0155 0.0152 0.0137 0.0113 0.0093 0.0082 0.0076 0.0075 0.0075 0.0075 0.0076 0.0075 0.0075 0.0075 0.0074 0.0074 0.0074 0.0075 0.0075 0.0075 0.0075 0.0074 0.0074 0.0074 0.0073 0.0135 0.0152 0.0135 0.01 0.0076 0.0103 0.0142 0.0102 0.0069 0.0069 0.0068 0.0067 0.0067 0.0067 0.0067 0.0067 0.0068 0.0069 0.0069 0.007 0.0071 0.0071 0.0072 0.0073 0.0074 0.0074 0.0075 0.0075 0.0076 0.0076 0.0076 0.0076 0.0075 0.0074 0.0073 0.0071 0.007 0.0069 0.0069
0.0145 0.0144 0.0147 0.0149 0.0151 0.0153 0.0153 0.0153 0.0152 0.0152 0.0152 0.0152 0.0152 0.0152 0.0153 0.0154 0.0156 0.0155 0.015 0.0131 0.0138 0.0145 0.0152 0.0153 0.0153 0.0152 0.0145 0.0139 0.0139 0.0146 0.016 0.0179 0.02 0.022 0.0231 0.0228 0.0227 0.0224 0.0198 0.0159 0.0148 0.0152 0.0152 0.0152 0.0152 0.0152 0.015 0.0149 0.0146 0.0149 0.0153 0.0173 0.0202 0.0234 0.0259 0.0294 0.0288 0.0256 0.0231 0.0221 0.0217 0.0215 0.0213 0.0211 0.0208 0.0203 0.0198 0.0192 0.0186 0.0179 0.0173 0.0166 0.016 0.0154 0.0148 0.0147 0.0148 0.0151 0.0143 0.0129 0.0137 0.0154 0.0202 0.0299 0.044 0.0435 0.0384 0.0317 0.026 0.0227 0.0202 0.0183 0.0168 0.0159 0.0153 0.0152 0.015 0.0148 0.0147 0.0149 0.0152 0.0152 0.0151 0.0152 0.0149 0.0146 0.0146 0.0148 0.0152 0.0152 0.0156 0.017 0.0193 0.0216 0.0231 0.0229 0.0228 0.0244 0.0288 0.0252 0.0233 0.022 0.0206 0.0191 0.0178 0.0168 0.016 0.0152 0.0145 0.014 0.0138 0.0151 0.0154 0.0155 0.0158 0.0162 0.0166 0.0169 0.017 0.0168 0.0164 0.0158 0.0152 0.0152 0.0152 0.0153 0.0152 0.0151 0.0152 0.0145 0.0146 0.0146 0.0147 0.0149 0.0152 0.0152 0.0152 0.0152 0.015 0.0155 0.0156 0.0158 0.016 0.0162 0.0165 0.0168 0.0171 0.0176 0.0183 0.0192 0.0201 0.021 0.0217 0.0222 0.0226 0.0227 0.0228 0.0228 0.0227 0.0227 0.0227 0.0229 0.0232 0.0236 0.024 0.0243 0.0245 0.0246 0.0245 0.0244 0.0244 0.0246 0.0253 0.0265 0.0285 0.0319 0.0378 0.0441 0.0485 0.051 0.0489 0.0396 0.033 0.0283 0.0249 0.0227 0.0213 0.0205 0.0199 0.0194 0.0189 0.0181 0.0178 0.0189 0.0199 0.0199 0.0181 0.0154 0.0143 0.0144 0.0147 0.015 0.0152 0.0152 0.0148 0.0145 0.0151 0.016 0.0206 0.0228 0.0231 0.0232 0.0227 0.0195 0.0159 0.0138 0.0132 0.0135 0.0137 0.0197 0.0158 0.0152 0.0163 0.0213 0.0217 0.0206 0.0196 0.0189 0.0181 0.017 0.0163 0.0157 0.0152 0.015 0.0151 0.0152 0.0155 0.0161 0.0167 0.0172 0.0176 0.0176 0.0176 0.0175 0.0176 0.0176 0.0176 0.0175 0.0174 0.0172 0.017 0.0167 0.0163 0.016 0.0158 0.0156 0.0155 0.0153 0.0152 0.0152 0.0145 0.0167 0.0191 0.0198 0.0188 0.0175 0.0162 0.0152 0.015 0.015 0.0152 0.0152 0.0153 0.0155 0.0159 0.0161 0.0161 0.016 0.0157 0.0149 0.0142 0.014 0.0148 0.0173 0.0224 0.0309 0.0387 0.0427 0.0424 0.0391 0.0334 0.0286 0.0237 0.0219 0.0211 0.0209 0.0218 0.0228 0.0231 0.0254 0.0301 0.0373 0.045 0.0488 0.0491 0.0476 0.0454 0.0432 0.0404 0.0374 0.037 0.0367 0.0376 0.0377 0.0406 0.0449 0.0474 0.0486 0.0485 0.0473 0.0485 0.0493 0.0484 0.0461 0.0437 0.0408 0.0381 0.0354 0.0329 0.0302 0.0269 0.0277 0.0282 0.028 0.0274 0.0259 0.0246 0.0234 0.0224 0.0198 0.0173 0.0152 0.0145 0.0151 0.0147 0.0121 0.0113 0.0105 0.0094 0.0086 0.0084 0.0102 0.0141 0.0183 0.0229 0.0263 0.0257 0.0219 0.0162 0.013 0.011 0.0081 0.0082 0.0086 0.0092 0.0131 0.0152 0.0146 0.0124 0.0093 0.0076 0.0075 0.0075 0.0075 0.0075 0.0075 0.0076 0.0075 0.0075 0.0074 0.0074 0.0074 0.0074 0.0075 0.0075 0.0075 0.0074 0.0074 0.0073 0.0072 0.0072 0.011 0.0133 0.0112 0.0088 0.0075 0.0102 0.0128 0.0109 0.0084 0.0068 0.0067 0.0067 0.0067 0.0067 0.0067 0.0067 0.0068 0.0068 0.0069 0.007 0.007 0.0071 0.0072 0.0072 0.0073 0.0074 0.0075 0.0076 0.0076 0.0076 0.0076 0.0075 0.0075 0.0075 0.0074 0.0072 0.0071 0.007 0.0068
0.0144 0.0143 0.0143 0.0145 0.0151 0.0154 0.0154 0.0153 0.0153 0.0152 0.0152 0.0152 0.0152 0.0152 0.0152 0.0153 0.0154 0.0152 0.0143 0.0131 0.0138 0.0145 0.015 0.0152 0.0152 0.0151 0.0145 0.0139 0.0138 0.0143 0.0154 0.0171 0.0191 0.0212 0.0227 0.0218 0.0201 0.0193 0.0175 0.0152 0.0147 0.0149 0.0151 0.0152 0.0152 0.0149 0.0147 0.0146 0.0149 0.0153 0.0171 0.0204 0.0245 0.0285 0.0301 0.0301 0.0271 0.0244 0.0225 0.0215 0.021 0.0209 0.0208 0.0207 0.0205 0.0202 0.0198 0.0193 0.0188 0.0182 0.0175 0.0168 0.0162 0.0156 0.015 0.0145 0.0142 0.0141 0.0139 0.0128 0.0149 0.0167 0.0213 0.0299 0.044 0.0365 0.032 0.0305 0.0288 0.0249 0.0218 0.0193 0.0174 0.016 0.0153 0.0152 0.0152 0.0149 0.0146 0.0144 0.0145 0.0145 0.0144 0.0145 0.0143 0.014 0.0139 0.014 0.0143 0.0145 0.0152 0.0171 0.0208 0.0243 0.0267 0.0256 0.0229 0.0229 0.0254 0.0257 0.026 0.0255 0.0232 0.0208 0.0187 0.0172 0.0161 0.0152 0.0147 0.0139 0.0137 0.0146 0.0152 0.0152 0.0154 0.0158 0.0161 0.0163 0.0163 0.0161 0.0157 0.0152 0.0149 0.0149 0.0149 0.0152 0.0152 0.0147 0.0144 0.0145 0.0148 0.0152 0.0152 0.0148 0.0148 0.0149 0.0149 0.0149 0.0153 0.0156 0.0158 0.0159 0.0161 0.0163 0.0165 0.0168 0.0172 0.0178 0.0186 0.0195 0.0205 0.0214 0.0221 0.0225 0.0227 0.0228 0.0228 0.0228 0.0227 0.0227 0.0229 0.0232 0.0237 0.0243 0.0249 0.0253 0.0255 0.0255 0.0253 0.0252 0.0252 0.0258 0.0269 0.0284 0.0306 0.0343 0.04 0.0452 0.0468 0.043 0.032 0.0298 0.0279 0.0246 0.0229 0.0219 0.0212 0.0206 0.02 0.0196 0.019 0.0184 0.0194 0.021 0.0223 0.0222 0.0199 0.0168 0.0151 0.0141 0.0143 0.0149 0.0152 0.0153 0.0149 0.0144 0.0151 0.0167 0.0224 0.0226 0.0215 0.0196 0.0181 0.0157 0.0138 0.0129 0.0128 0.0134 0.0163 0.0183 0.0154 0.0151 0.0163 0.0189 0.0194 0.0187 0.0178 0.0169 0.016 0.0152 0.0152 0.0152 0.0149 0.015 0.0152 0.0158 0.0166 0.0171 0.0178 0.0182 0.0185 0.0184 0.0182 0.018 0.0178 0.0178 0.0176 0.0175 0.0173 0.017 0.0167 0.0164 0.0161 0.0158 0.0156 0.0154 0.0152 0.0152 0.015 0.0151 0.0152 0.0166 0.0185 0.019 0.0182 0.017 0.0159 0.0152 0.0149 0.0152 0.0153 0.0152 0.0153 0.0157 0.0162 0.0165 0.0165 0.0165 0.0161 0.0153 0.0147 0.0148 0.0161 0.0194 0.026 0.0388 0.049 0.0516 0.0478 0.0424 0.0335 0.0282 0.0244 0.0227 0.0216 0.021 0.0211 0.0227 0.0228 0.0243 0.0278 0.0337 0.0424 0.0475 0.0483 0.0478 0.0469 0.0458 0.0444 0.0414 0.0402 0.0393 0.0396 0.0403 0.0425 0.0455 0.0474 0.0498 0.0519 0.0525 0.0534 0.0532 0.0514 0.0484 0.0454 0.0424 0.0397 0.037 0.0343 0.0316 0.029 0.0257 0.0262 0.0255 0.0245 0.023 0.0227 0.0223 0.0206 0.0185 0.0168 0.0152 0.0152 0.0154 0.0154 0.0147 0.0128 0.0112 0.0097 0.0091 0.0086 0.011 0.015 0.0195 0.0236 0.0273 0.0252 0.0207 0.0144 0.0103 0.0079 0.008 0.0081 0.0086 0.0109 0.0134 0.0148 0.0144 0.0122 0.0082 0.0072 0.0075 0.0074 0.0075 0.0075 0.0076 0.0076 0.0076 0.0075 0.0075 0.0074 0.0074 0.0074 0.0076 0.0077 0.0077 0.0075 0.0073 0.0072 0.0071 0.0071 0.0078 0.0084 0.0078 0.0075 0.0077 0.0095 0.0111 0.0104 0.0087 0.0067 0.0067 0.0067 0.0067 0.0067 0.0067 0.0067 0.0068 0.0068 0.0069 0.0069 0.007 0.0071 0.0072 0.0073 0.0074 0.0075 0.0075 0.0076 0.0076 0.0076 0.0076 0.0076 0.0076 0.0075 0.0075 0.0074 0.0072 0.0071 0.0069
0.0148 0.0145 0.0142 0.0142 0.0152 0.0155 0.0155 0.0154 0.0153 0.0152 0.0152 0.0152 0.0152 0.0152 0.0152 0.0153 0.0153 0.0152 0.014 0.013 0.0137 0.0143 0.0149 0.0152 0.0152 0.0152 0.0147 0.0141 0.0139 0.0141 0.0149 0.016 0.0174 0.0189 0.0203 0.0174 0.0159 0.0162 0.0159 0.0152 0.0149 0.015 0.0152 0.0153 0.0152 0.0146 0.0145 0.0151 0.0153 0.0168 0.0197 0.0238 0.0284 0.0304 0.0302 0.0288 0.0245 0.0225 0.0213 0.0206 0.0203 0.0202 0.0202 0.0202 0.0201 0.02 0.0197 0.0194 0.0189 0.0184 0.0178 0.0171 0.0165 0.0159 0.0155 0.0153 0.0151 0.0137 0.0133 0.0128 0.0149 0.017 0.022 0.0299 0.0424 0.0337 0.0282 0.0298 0.0303 0.0287 0.0244 0.021 0.0183 0.0163 0.0152 0.0152 0.0152 0.0149 0.0147 0.0145 0.0142 0.014 0.0138 0.014 0.0138 0.0135 0.0136 0.0138 0.0139 0.0141 0.0142 0.0163 0.0218 0.028 0.0312 0.0289 0.0236 0.022 0.0238 0.029 0.035 0.0335 0.0276 0.0227 0.0195 0.0175 0.0163 0.0156 0.0151 0.0138 0.0137 0.0145 0.015 0.0151 0.0152 0.0155 0.0157 0.0159 0.0159 0.0158 0.0155 0.0153 0.0152 0.0147 0.0145 0.0142 0.0143 0.0144 0.0146 0.0148 0.0152 0.0154 0.0154 0.0152 0.0152 0.0152 0.0152 0.0153 0.0156 0.0158 0.016 0.0161 0.0162 0.0163 0.0165 0.0168 0.0171 0.0179 0.0188 0.0198 0.021 0.0219 0.0225 0.0228 0.0228 0.0228 0.0228 0.0228 0.0228 0.0229 0.0231 0.0236 0.0243 0.0251 0.0259 0.0265 0.0266 0.0265 0.0262 0.0261 0.0264 0.0275 0.0294 0.0315 0.0335 0.0361 0.0421 0.0468 0.048 0.044 0.032 0.0287 0.0276 0.0237 0.0236 0.0223 0.0216 0.021 0.0205 0.0209 0.0202 0.0199 0.0211 0.0233 0.025 0.0247 0.022 0.0177 0.0152 0.014 0.0141 0.0149 0.0152 0.0154 0.0151 0.0142 0.0152 0.0166 0.019 0.0185 0.0166 0.0156 0.0151 0.0139 0.013 0.0128 0.0132 0.0133 0.0156 0.0166 0.0154 0.0152 0.0158 0.017 0.0172 0.0167 0.0162 0.0157 0.0152 0.0148 0.0149 0.0148 0.0152 0.0152 0.0155 0.0163 0.0173 0.0182 0.0189 0.0195 0.0196 0.0194 0.019 0.0186 0.0183 0.018 0.0178 0.0175 0.0173 0.017 0.0166 0.0163 0.0159 0.0156 0.0154 0.0153 0.0152 0.015 0.0149 0.0148 0.0152 0.0163 0.018 0.018 0.017 0.0161 0.0152 0.0149 0.015 0.0152 0.0152 0.0152 0.0153 0.0157 0.0163 0.0168 0.0169 0.017 0.0168 0.0162 0.016 0.0168 0.0191 0.0239 0.0337 0.0489 0.0593 0.0576 0.0466 0.0337 0.0289 0.0259 0.0239 0.0228 0.0218 0.0212 0.021 0.0214 0.0219 0.0228 0.0249 0.0285 0.0337 0.0424 0.0434 0.0446 0.0455 0.0457 0.0455 0.044 0.0427 0.0419 0.042 0.0425 0.0435 0.0448 0.0462 0.0502 0.0558 0.0575 0.0582 0.0575 0.0548 0.0509 0.0468 0.044 0.0414 0.0384 0.0354 0.0326 0.0302 0.0271 0.0244 0.0234 0.0227 0.0213 0.0206 0.0197 0.0188 0.0178 0.0166 0.0154 0.0149 0.015 0.0152 0.015 0.0134 0.0117 0.0103 0.0089 0.0097 0.0119 0.0155 0.0202 0.0242 0.028 0.0233 0.0176 0.011 0.0078 0.0079 0.0079 0.008 0.0135 0.0141 0.0146 0.0151 0.0152 0.0141 0.0096 0.0078 0.0074 0.0074 0.0075 0.0076 0.0076 0.0076 0.0076 0.0076 0.0075 0.0075 0.0074 0.0076 0.0078 0.008 0.0081 0.0079 0.0076 0.0071 0.0071 0.007 0.007 0.0076 0.0072 0.0072 0.0077 0.0089 0.0098 0.0096 0.0084 0.0067 0.0067 0.0067 0.0067 0.0067 0.0067 0.0067 0.0068 0.0068 0.0068 0.0069 0.007 0.0071 0.0072 0.0073 0.0074 0.0075 0.0075 0.0076 0.0076 0.0076 0.0076 0.0076 0.0076 0.0076 0.0075 0.0074 0.0074 0.0072 0.0071
0.0152 0.0149 0.0145 0.0142 0.0146 0.0152 0.0153 0.0153 0.0152 0.0152 0.0152 0.0152 0.0152 0.0152 0.0152 0.0152 0.0152 0.0151 0.0137 0.013 0.0135 0.0142 0.0148 0.0152 0.0153 0.0152 0.0149 0.0145 0.0141 0.0141 0.0145 0.015 0.0155 0.0155 0.0158 0.0152 0.0149 0.0152 0.0153 0.0152 0.0151 0.0151 0.0152 0.0152 0.0144 0.0144 0.0151 0.0163 0.0176 0.0198 0.023 0.0273 0.0307 0.0304 0.0263 0.0242 0.0221 0.0208 0.0201 0.0197 0.0195 0.0195 0.0195 0.0196 0.0196 0.0197 0.0196 0.0194 0.019 0.0185 0.0179 0.0172 0.0167 0.0162 0.016 0.0158 0.0157 0.0152 0.0149 0.0127 0.0137 0.0163 0.0228 0.0297 0.0336 0.0278 0.024 0.0266 0.0302 0.0304 0.0273 0.0228 0.0192 0.0167 0.0152 0.015 0.0152 0.015 0.015 0.0152 0.0152 0.015 0.0151 0.0135 0.0135 0.0134 0.0142 0.0152 0.0155 0.0157 0.0148 0.0145 0.0195 0.0266 0.0323 0.0285 0.0231 0.0207 0.0227 0.031 0.0449 0.0382 0.029 0.023 0.0195 0.0174 0.0162 0.0156 0.0151 0.0137 0.0137 0.0147 0.0152 0.0152 0.0152 0.0154 0.0156 0.0157 0.0157 0.0156 0.0155 0.0153 0.0152 0.0145 0.0142 0.0146 0.0152 0.0148 0.0149 0.0152 0.0154 0.0156 0.0155 0.0154 0.0154 0.0154 0.0154 0.0155 0.0158 0.016 0.0162 0.0163 0.0164 0.0165 0.0166 0.0167 0.0169 0.0178 0.0188 0.02 0.0213 0.0224 0.0228 0.0228 0.0229 0.0229 0.0229 0.0228 0.0229 0.0231 0.0234 0.0241 0.0251 0.0261 0.0271 0.0277 0.0278 0.0275 0.0271 0.0271 0.0278 0.0298 0.0333 0.0367 0.0367 0.0367 0.0444 0.0502 0.0502 0.0478 0.0424 0.032 0.0269 0.0256 0.0244 0.0227 0.022 0.0218 0.0227 0.0223 0.0211 0.021 0.0225 0.0254 0.0279 0.0276 0.0244 0.0179 0.0151 0.0145 0.0138 0.015 0.0155 0.0151 0.0139 0.0151 0.0154 0.0156 0.0161 0.0154 0.0149 0.0143 0.0139 0.0133 0.0128 0.0127 0.0132 0.0143 0.0153 0.0157 0.0152 0.0151 0.0153 0.0157 0.0157 0.0152 0.0152 0.0153 0.0152 0.0147 0.0147 0.0149 0.0151 0.0152 0.0158 0.0167 0.0179 0.0191 0.0201 0.0207 0.0208 0.0204 0.0198 0.0192 0.0187 0.0182 0.0179 0.0176 0.0173 0.0169 0.0165 0.0161 0.0158 0.0155 0.0153 0.0152 0.0152 0.0152 0.0149 0.0148 0.0152 0.0168 0.0173 0.0167 0.0161 0.0156 0.0152 0.0148 0.0152 0.0152 0.0152 0.0151 0.0152 0.0156 0.0162 0.0168 0.0172 0.0176 0.0177 0.0176 0.0181 0.02 0.0234 0.0289 0.0413 0.0593 0.0628 0.0582 0.0464 0.0337 0.0285 0.0254 0.0236 0.0228 0.022 0.0215 0.0214 0.0215 0.0217 0.022 0.0229 0.0251 0.0287 0.0326 0.0337 0.0377 0.0417 0.0445 0.0457 0.0456 0.0446 0.0438 0.044 0.0443 0.0442 0.0445 0.0455 0.0489 0.0576 0.06 0.0611 0.0603 0.0572 0.0532 0.0492 0.046 0.0433 0.0397 0.0358 0.0324 0.0302 0.0274 0.025 0.0229 0.0223 0.0227 0.0225 0.021 0.0219 0.0202 0.0177 0.0156 0.0148 0.0153 0.0165 0.0157 0.0134 0.0112 0.0092 0.0099 0.0109 0.0128 0.0158 0.0205 0.0224 0.0221 0.0184 0.0151 0.0077 0.0066 0.0071 0.0079 0.0135 0.0155 0.0152 0.0151 0.0152 0.0157 0.0153 0.0127 0.0082 0.0074 0.0074 0.0075 0.0076 0.0076 0.0076 0.0076 0.0076 0.0076 0.0075 0.0076 0.0078 0.0082 0.0086 0.0089 0.0089 0.0086 0.0078 0.007 0.007 0.007 0.0069 0.0071 0.0071 0.0076 0.0083 0.0089 0.0088 0.008 0.0066 0.0067 0.0067 0.0067 0.0067 0.0067 0.0067 0.0067 0.0068 0.0068 0.0069 0.0071 0.0072 0.0073 0.0074 0.0075 0.0075 0.0076 0.0076 0.0076 0.0076 0.0076 0.0076 0.0076 0.0076 0.0076 0.0075 0.0075 0.0073 0.0071
0.0153 0.0152 0.0148 0.0142 0.0141 0.0145 0.0149 0.0152 0.0152 0.0152 0.0152 0.0152 0.0151 0.0151 0.0152 0.0152 0.015 0.0142 0.0129 0.0128 0.0135 0.0142 0.0148 0.0152 0.0153 0.0153 0.0152 0.0149 0.0145 0.0144 0.0145 0.0147 0.015 0.0152 0.015 0.0149 0.0152 0.0152 0.0153 0.0153 0.0152 0.0148 0.0146 0.0142 0.0142 0.0151 0.0163 0.0184 0.0212 0.0243 0.0275 0.0323 0.0354 0.0329 0.0244 0.0227 0.0209 0.0198 0.0192 0.0188 0.0187 0.0187 0.0188 0.0189 0.0191 0.0192 0.0193 0.0192 0.0189 0.0185 0.0179 0.0172 0.0167 0.0163 0.0161 0.016 0.0158 0.0152 0.0142 0.0125 0.0126 0.0165 0.0249 0.032 0.032 0.0244 0.0235 0.0243 0.0292 0.031 0.029 0.0237 0.0199 0.0173 0.0157 0.0152 0.0153 0.0152 0.0152 0.0151 0.0152 0.0152 0.0152 0.014 0.0132 0.0137 0.0164 0.0186 0.0196 0.0206 0.0182 0.015 0.0146 0.02 0.0242 0.0231 0.0197 0.0174 0.0183 0.026 0.0524 0.0367 0.026 0.0213 0.0185 0.0168 0.0158 0.0152 0.0147 0.0136 0.0137 0.0151 0.0154 0.0153 0.0153 0.0154 0.0155 0.0156 0.0156 0.0156 0.0154 0.0152 0.0147 0.0141 0.0141 0.0146 0.0152 0.0152 0.0152 0.0153 0.0155 0.0156 0.0156 0.0155 0.0155 0.0155 0.0155 0.0157 0.0159 0.0162 0.0164 0.0165 0.0166 0.0166 0.0167 0.0168 0.017 0.0171 0.0184 0.0198 0.0213 0.0228 0.023 0.0228 0.0228 0.0229 0.0229 0.0229 0.023 0.0233 0.0238 0.0248 0.0259 0.0272 0.0284 0.0291 0.0291 0.0285 0.0281 0.0281 0.0291 0.0323 0.0388 0.0424 0.0367 0.0367 0.0449 0.05 0.0473 0.0449 0.0397 0.0318 0.0273 0.0255 0.0291 0.0244 0.0231 0.0245 0.0277 0.0257 0.0227 0.0217 0.023 0.0265 0.03 0.0297 0.0272 0.0184 0.0156 0.016 0.0153 0.0137 0.015 0.0145 0.0137 0.0144 0.0152 0.015 0.015 0.0148 0.0152 0.0146 0.0142 0.0137 0.0132 0.0129 0.0131 0.0141 0.0148 0.0152 0.0152 0.0151 0.0151 0.0152 0.0152 0.015 0.0152 0.0153 0.0152 0.0146 0.0146 0.015 0.0152 0.0153 0.0159 0.017 0.0184 0.0198 0.021 0.0219 0.0219 0.0211 0.0202 0.0195 0.0189 0.0184 0.018 0.0176 0.0173 0.0168 0.0164 0.016 0.0157 0.0154 0.0152 0.0152 0.0152 0.0151 0.0148 0.0148 0.0152 0.0164 0.0161 0.0152 0.0152 0.0152 0.0148 0.0149 0.0152 0.0152 0.0151 0.015 0.015 0.0153 0.016 0.0167 0.0173 0.0181 0.0187 0.0193 0.0207 0.024 0.0285 0.032 0.0454 0.0612 0.0616 0.0572 0.0487 0.0424 0.0324 0.0266 0.0238 0.0228 0.0222 0.0217 0.0215 0.0221 0.0222 0.0221 0.0222 0.0229 0.0247 0.0266 0.0285 0.0326 0.0384 0.0433 0.0457 0.0465 0.0457 0.0451 0.0453 0.0456 0.0446 0.0441 0.0445 0.0457 0.0473 0.0569 0.0607 0.0608 0.0574 0.0538 0.0505 0.0477 0.045 0.0405 0.0356 0.0311 0.0287 0.0265 0.0246 0.0231 0.0228 0.023 0.023 0.0227 0.0234 0.0223 0.0185 0.0156 0.0153 0.0176 0.0195 0.017 0.0128 0.0095 0.0101 0.011 0.0122 0.0137 0.0159 0.0202 0.0193 0.0179 0.0157 0.0123 0.0077 0.0075 0.0077 0.0078 0.0138 0.0152 0.0153 0.0152 0.0151 0.0156 0.015 0.0119 0.0079 0.0074 0.0074 0.0074 0.0075 0.0076 0.0076 0.0076 0.0075 0.0075 0.0076 0.0078 0.0082 0.0087 0.0094 0.0099 0.0104 0.0105 0.0099 0.0084 0.007 0.0069 0.0069 0.0069 0.007 0.0073 0.0078 0.0082 0.0082 0.0077 0.0066 0.0066 0.0066 0.0066 0.0066 0.0067 0.0067 0.0067 0.0067 0.0069 0.007 0.0071 0.0072 0.0073 0.0074 0.0075 0.0076 0.0076 0.0076 0.0076 0.0076 0.0076 0.0076 0.0076 0.0076 0.0076 0.0076 0.0075 0.0074 0.0072
0.0152 0.0152 0.0152 0.0145 0.014 0.0142 0.0145 0.0149 0.0152 0.0151 0.0152 0.0153 0.0152 0.0152 0.0152 0.0153 0.0152 0.0138 0.0128 0.0128 0.0135 0.0142 0.0148 0.0152 0.0152 0.0152 0.0152 0.0152 0.0149 0.0147 0.0146 0.0148 0.015 0.0152 0.0151 0.0152 0.0153 0.0152 0.0153 0.0154 0.0152 0.0144 0.0141 0.0141 0.0141 0.0152 0.0177 0.0216 0.0267 0.0318 0.0337 0.0393 0.0417 0.0386 0.0244 0.0213 0.0198 0.0189 0.0184 0.0181 0.018 0.018 0.0181 0.0183 0.0185 0.0188 0.0189 0.0189 0.0187 0.0183 0.0177 0.017 0.0164 0.0161 0.016 0.016 0.0158 0.0152 0.0136 0.0124 0.0125 0.0173 0.0279 0.0383 0.0386 0.0228 0.0227 0.0231 0.0267 0.0297 0.0278 0.0234 0.0202 0.0179 0.0167 0.0163 0.0164 0.0163 0.016 0.0153 0.0149 0.0152 0.0149 0.014 0.0131 0.0157 0.0218 0.0232 0.0231 0.0236 0.0221 0.0177 0.0145 0.0148 0.0177 0.0178 0.0159 0.014 0.0139 0.0176 0.026 0.0272 0.0228 0.0196 0.0175 0.0162 0.0155 0.0152 0.0148 0.0141 0.0136 0.0151 0.0154 0.0152 0.0153 0.0154 0.0155 0.0156 0.0156 0.0155 0.0154 0.0152 0.0145 0.014 0.014 0.0146 0.0152 0.0153 0.0154 0.0154 0.0155 0.0156 0.0156 0.0156 0.0155 0.0155 0.0156 0.0157 0.016 0.0163 0.0165 0.0167 0.0167 0.0167 0.0166 0.0167 0.0168 0.0172 0.0181 0.0194 0.0208 0.0222 0.0228 0.0228 0.0229 0.023 0.023 0.023 0.0231 0.0234 0.0245 0.0257 0.0269 0.0283 0.0297 0.0304 0.03 0.0294 0.0288 0.0288 0.0299 0.0337 0.0424 0.0456 0.0424 0.0367 0.0402 0.0337 0.0363 0.0376 0.0337 0.0292 0.0264 0.0258 0.0275 0.026 0.0263 0.0299 0.036 0.0337 0.026 0.0228 0.0227 0.0251 0.0274 0.0274 0.0252 0.0202 0.0184 0.0216 0.0206 0.016 0.0135 0.0141 0.0135 0.0143 0.016 0.0154 0.0152 0.0147 0.0152 0.0154 0.0152 0.0147 0.0138 0.0131 0.0131 0.0137 0.0144 0.0149 0.0152 0.0152 0.0152 0.0152 0.0152 0.015 0.0152 0.0154 0.0152 0.0145 0.0148 0.0152 0.0152 0.0152 0.016 0.0171 0.0186 0.0202 0.0216 0.0227 0.0227 0.0213 0.0202 0.0195 0.0189 0.0185 0.0181 0.0176 0.0172 0.0168 0.0164 0.016 0.0156 0.0154 0.0152 0.0152 0.0152 0.015 0.0149 0.0147 0.0152 0.0158 0.0152 0.0147 0.0149 0.0147 0.0149 0.015 0.0152 0.0152 0.015 0.0149 0.0149 0.0151 0.0156 0.0165 0.0174 0.0184 0.0197 0.021 0.0233 0.0284 0.0346 0.0337 0.0489 0.0669 0.0641 0.0576 0.0473 0.04 0.032 0.0265 0.0236 0.0228 0.0223 0.022 0.0217 0.0224 0.0228 0.0228 0.0224 0.0223 0.0227 0.0231 0.0253 0.0297 0.0358 0.0425 0.0463 0.0477 0.0471 0.0458 0.0456 0.045 0.0444 0.0436 0.0438 0.0446 0.0484 0.0576 0.0582 0.0576 0.054 0.0513 0.0493 0.0473 0.0451 0.0407 0.0355 0.0306 0.0277 0.0256 0.0241 0.0231 0.0228 0.0228 0.0228 0.0231 0.0237 0.0225 0.018 0.0152 0.0162 0.0195 0.0225 0.0178 0.0125 0.0097 0.0111 0.0125 0.014 0.0152 0.0153 0.0157 0.0163 0.0162 0.0155 0.0116 0.0077 0.0075 0.0077 0.0135 0.0152 0.0156 0.0161 0.0161 0.0153 0.0152 0.0137 0.0108 0.0077 0.0075 0.0074 0.0073 0.0074 0.0075 0.0075 0.0075 0.0075 0.0075 0.0077 0.0079 0.0085 0.0092 0.01 0.011 0.0119 0.0127 0.0127 0.0109 0.0088 0.0069 0.0069 0.0068 0.0068 0.007 0.0074 0.0077 0.0077 0.0073 0.0066 0.0065 0.0066 0.0066 0.0066 0.0067 0.0067 0.0067 0.0068 0.0069 0.0071 0.0072 0.0073 0.0074 0.0075 0.0075 0.0076 0.0076 0.0076 0.0076 0.0076 0.0076 0.0076 0.0076 0.0076 0.0076 0.0076 0.0075 0.0074 0.0073
0.0152 0.0152 0.0151 0.0147 0.0142 0.0139 0.0142 0.0146 0.0152 0.0152 0.0156 0.0157 0.0156 0.0154 0.0153 0.0152 0.0151 0.0133 0.0128 0.0132 0.0138 0.0143 0.0148 0.0151 0.0152 0.0152 0.0152 0.0152 0.0151 0.015 0.0149 0.015 0.0151 0.0152 0.0152 0.0153 0.0154 0.0152 0.0152 0.0152 0.0145 0.014 0.0141 0.0142 0.0142 0.0158 0.0201 0.026 0.0337 0.0424 0.0439 0.0454 0.0424 0.0337 0.0241 0.0201 0.0189 0.0182 0.0177 0.0175 0.0173 0.0173 0.0174 0.0176 0.0179 0.0182 0.0185 0.0186 0.0185 0.0181 0.0175 0.0167 0.016 0.0157 0.0156 0.0156 0.0157 0.0151 0.013 0.0124 0.0153 0.0184 0.0299 0.0424 0.0383 0.0244 0.0221 0.0223 0.0236 0.0262 0.0256 0.0229 0.0205 0.0188 0.0182 0.0183 0.0188 0.0187 0.0186 0.0176 0.016 0.0164 0.016 0.0139 0.0129 0.0168 0.0272 0.0269 0.0257 0.0256 0.0251 0.02 0.016 0.0149 0.0153 0.015 0.0136 0.0121 0.0117 0.0135 0.0177 0.0208 0.0197 0.018 0.0166 0.0157 0.0152 0.0152 0.0152 0.0142 0.0136 0.0145 0.0152 0.0153 0.0154 0.0155 0.0155 0.0155 0.0155 0.0153 0.0152 0.0148 0.0143 0.0139 0.0139 0.0151 0.0154 0.0155 0.0154 0.0154 0.0155 0.0156 0.0156 0.0155 0.0155 0.0155 0.0155 0.0157 0.0159 0.0162 0.0165 0.0166 0.0167 0.0166 0.0165 0.0165 0.0167 0.0173 0.0187 0.0193 0.0203 0.0215 0.0224 0.0228 0.0229 0.023 0.023 0.023 0.0248 0.0264 0.0267 0.0267 0.028 0.0293 0.0304 0.0307 0.0304 0.0299 0.0294 0.0291 0.0298 0.0323 0.039 0.0445 0.043 0.0337 0.0343 0.0342 0.032 0.032 0.0289 0.026 0.0248 0.0249 0.0261 0.0267 0.0286 0.0337 0.0452 0.0469 0.032 0.0245 0.0224 0.0228 0.0243 0.0245 0.0237 0.0231 0.026 0.0327 0.0283 0.0199 0.0133 0.0136 0.0133 0.0212 0.0205 0.0188 0.0173 0.0159 0.0162 0.0172 0.0172 0.0164 0.015 0.0135 0.0131 0.0134 0.014 0.0146 0.015 0.0152 0.0152 0.0152 0.015 0.0148 0.015 0.0151 0.0144 0.0148 0.0152 0.0153 0.0152 0.0153 0.016 0.017 0.0185 0.02 0.0214 0.0224 0.0227 0.0206 0.0198 0.0192 0.0188 0.0184 0.018 0.0176 0.0171 0.0167 0.0163 0.0159 0.0156 0.0153 0.0152 0.0152 0.0152 0.015 0.0148 0.0146 0.0151 0.0152 0.0148 0.0146 0.0146 0.0149 0.0152 0.0152 0.0152 0.0152 0.0151 0.0149 0.0149 0.0149 0.0154 0.0163 0.0173 0.0187 0.0205 0.0225 0.0249 0.0288 0.0337 0.044 0.0576 0.0697 0.0698 0.0625 0.0523 0.0409 0.0318 0.026 0.0229 0.0226 0.0224 0.0221 0.0217 0.0228 0.0231 0.0231 0.0228 0.0221 0.0216 0.0216 0.023 0.0264 0.0319 0.0389 0.0454 0.0484 0.0484 0.0472 0.0464 0.046 0.0455 0.0434 0.0425 0.0432 0.0479 0.0538 0.0489 0.0473 0.0471 0.0473 0.0469 0.0457 0.0442 0.0407 0.0358 0.0307 0.0275 0.0253 0.0239 0.0231 0.0228 0.0227 0.0227 0.0228 0.0235 0.022 0.0167 0.0148 0.0156 0.0177 0.0186 0.0152 0.011 0.0099 0.0127 0.0145 0.0167 0.0186 0.0183 0.0164 0.0184 0.0222 0.0195 0.0123 0.0076 0.0075 0.0076 0.0122 0.0156 0.0191 0.021 0.0194 0.0173 0.0153 0.0129 0.0102 0.0081 0.0076 0.0074 0.0074 0.0073 0.0074 0.0074 0.0074 0.0074 0.0074 0.0076 0.008 0.0086 0.0094 0.0104 0.0115 0.0128 0.0141 0.0151 0.013 0.0107 0.0087 0.0068 0.0068 0.0068 0.0068 0.007 0.0072 0.0073 0.007 0.0066 0.0065 0.0066 0.0066 0.0066 0.0067 0.0067 0.0068 0.0069 0.007 0.0071 0.0072 0.0074 0.0074 0.0075 0.0076 0.0076 0.0076 0.0076 0.0076 0.0076 0.0076 0.0076 0.0076 0.0076 0.0076 0.0076 0.0075 0.0074 0.0073
0.0152 0.0152 0.0152 0.0152 0.0151 0.0138 0.0139 0.0143 0.0152 0.016 0.0165 0.0165 0.0162 0.0157 0.0153 0.0147 0.014 0.0127 0.0129 0.0134 0.0139 0.0145 0.0149 0.0152 0.0152 0.0152 0.0152 0.0152 0.0152 0.0152 0.0151 0.0151 0.0152 0.0152 0.0151 0.0152 0.0151 0.0145 0.0145 0.0145 0.014 0.0151 0.0149 0.0151 0.0154 0.0184 0.0245 0.0333 0.0424 0.0463 0.0451 0.0424 0.0337 0.0282 0.0229 0.0204 0.0182 0.0175 0.0171 0.0169 0.0167 0.0166 0.0166 0.0169 0.0173 0.0177 0.018 0.0181 0.0181 0.0178 0.0172 0.0163 0.0156 0.0152 0.0153 0.0152 0.0153 0.0145 0.0124 0.0138 0.0156 0.0202 0.0299 0.0424 0.0378 0.0276 0.0229 0.0215 0.0224 0.024 0.0241 0.0227 0.021 0.0201 0.0204 0.0213 0.0224 0.0222 0.0231 0.0225 0.0205 0.0207 0.0216 0.0168 0.0128 0.0159 0.0226 0.0256 0.0295 0.0252 0.0231 0.0193 0.0162 0.0151 0.0147 0.014 0.0128 0.0116 0.0111 0.0121 0.0145 0.0167 0.017 0.0165 0.0159 0.0154 0.0151 0.0152 0.0155 0.0151 0.0135 0.0144 0.0152 0.0154 0.0155 0.0155 0.0155 0.0155 0.0154 0.0152 0.0149 0.0145 0.014 0.0138 0.0144 0.0152 0.0154 0.0154 0.0153 0.0153 0.0154 0.0154 0.0155 0.0155 0.0154 0.0154 0.0155 0.0156 0.0158 0.0161 0.0163 0.0165 0.0165 0.0164 0.0163 0.0163 0.0165 0.0176 0.0194 0.0206 0.0204 0.0212 0.022 0.0228 0.0229 0.0229 0.023 0.0251 0.0275 0.0291 0.03 0.0296 0.0303 0.0304 0.0304 0.0304 0.0304 0.0301 0.0299 0.0297 0.0298 0.0307 0.0337 0.0401 0.0424 0.0337 0.0323 0.031 0.0306 0.0296 0.0244 0.023 0.0232 0.0239 0.0253 0.0271 0.0305 0.0377 0.0511 0.0593 0.0337 0.0259 0.0232 0.0225 0.0232 0.0229 0.023 0.0253 0.0331 0.0435 0.033 0.0222 0.0174 0.0131 0.0131 0.0169 0.0206 0.0211 0.0207 0.0203 0.0212 0.0209 0.0202 0.019 0.0171 0.0148 0.013 0.0132 0.0137 0.0142 0.0146 0.0148 0.0148 0.0147 0.0145 0.0143 0.0145 0.0142 0.0145 0.0149 0.0151 0.0152 0.0152 0.0153 0.0159 0.0168 0.018 0.0193 0.0205 0.0211 0.0209 0.0199 0.0192 0.0188 0.0185 0.0181 0.0178 0.0174 0.017 0.0166 0.0162 0.0158 0.0155 0.0153 0.0152 0.0152 0.0153 0.0152 0.0148 0.0145 0.0148 0.0148 0.0145 0.0146 0.0149 0.0152 0.0153 0.0153 0.0153 0.0153 0.0152 0.015 0.0149 0.0149 0.0153 0.0161 0.0174 0.019 0.021 0.0234 0.027 0.032 0.0388 0.0489 0.0622 0.0723 0.0745 0.0665 0.0576 0.0412 0.0307 0.0252 0.0229 0.0228 0.0225 0.0219 0.0222 0.0228 0.0233 0.0233 0.0228 0.0222 0.0211 0.021 0.0214 0.0232 0.0274 0.0336 0.0424 0.0473 0.048 0.0476 0.0473 0.0468 0.0457 0.044 0.0421 0.0416 0.0447 0.0475 0.0457 0.0456 0.0455 0.0457 0.0457 0.0453 0.0444 0.0416 0.0373 0.0321 0.0285 0.0259 0.0242 0.0233 0.0228 0.0228 0.0225 0.0227 0.0231 0.0213 0.0161 0.0142 0.0143 0.0149 0.0145 0.0122 0.0101 0.0106 0.0131 0.016 0.0208 0.0213 0.0195 0.0184 0.0249 0.0272 0.0165 0.0105 0.0076 0.0075 0.0075 0.0106 0.0153 0.021 0.023 0.0217 0.0188 0.0152 0.012 0.0096 0.0081 0.0076 0.0075 0.0074 0.0074 0.0073 0.0073 0.0073 0.0073 0.0073 0.0075 0.0079 0.0085 0.0094 0.0103 0.0113 0.0124 0.0134 0.0142 0.0131 0.0115 0.0099 0.0083 0.0068 0.0068 0.0067 0.0069 0.007 0.0071 0.007 0.0068 0.0065 0.0066 0.0066 0.0066 0.0067 0.0067 0.0068 0.0069 0.007 0.0071 0.0073 0.0074 0.0075 0.0075 0.0076 0.0076 0.0076 0.0076 0.0076 0.0076 0.0076 0.0075 0.0076 0.0076 0.0076 0.0075 0.0075 0.0074 0.0073
0.0152 0.0152 0.0152 0.0153 0.0154 0.0151 0.0137 0.0139 0.0153 0.0174 0.0179 0.0174 0.0167 0.0159 0.0152 0.0144 0.0136 0.0126 0.013 0.0134 0.0141 0.0146 0.015 0.0152 0.0152 0.0152 0.0152 0.0152 0.0152 0.0152 0.0152 0.0152 0.0153 0.0152 0.0148 0.0145 0.0139 0.0139 0.0139 0.014 0.0151 0.0153 0.0152 0.0158 0.0173 0.0213 0.0286 0.0388 0.0453 0.0452 0.0389 0.0337 0.0275 0.0233 0.0205 0.0191 0.018 0.017 0.0166 0.0163 0.0161 0.0159 0.0159 0.0162 0.0167 0.017 0.0173 0.0175 0.0176 0.0175 0.017 0.0161 0.0152 0.015 0.0152 0.0151 0.0152 0.0145 0.0124 0.0138 0.016 0.0212 0.0291 0.0373 0.0341 0.0272 0.0237 0.0225 0.0208 0.0223 0.0227 0.0219 0.0214 0.0221 0.0238 0.0257 0.0275 0.026 0.0284 0.028 0.0243 0.0242 0.028 0.0212 0.0127 0.0148 0.0175 0.0207 0.0231 0.0216 0.0196 0.0172 0.0153 0.0152 0.0149 0.0142 0.0131 0.0121 0.0116 0.0121 0.0135 0.0149 0.0156 0.0156 0.0154 0.0153 0.0152 0.0152 0.0152 0.0142 0.0135 0.0151 0.0155 0.0156 0.0156 0.0156 0.0155 0.0154 0.0153 0.0152 0.0148 0.0143 0.0138 0.0137 0.0142 0.0148 0.0152 0.0152 0.0152 0.0152 0.0153 0.0153 0.0154 0.0154 0.0154 0.0153 0.0154 0.0155 0.0157 0.0159 0.0161 0.0163 0.0163 0.0162 0.0161 0.0161 0.0163 0.0181 0.0203 0.022 0.0226 0.0214 0.022 0.0228 0.0228 0.0229 0.0254 0.0281 0.0302 0.0304 0.0307 0.0305 0.0306 0.0304 0.0304 0.0304 0.0304 0.0303 0.0303 0.0304 0.0304 0.0304 0.0317 0.034 0.0337 0.0306 0.0301 0.0304 0.0304 0.0288 0.0223 0.0224 0.0228 0.0234 0.0248 0.0268 0.0295 0.0337 0.0423 0.0452 0.0337 0.0301 0.0283 0.0257 0.0258 0.0237 0.0228 0.0245 0.0281 0.0299 0.0252 0.0184 0.0171 0.0153 0.013 0.016 0.021 0.0222 0.0228 0.023 0.0236 0.0235 0.0229 0.0217 0.0197 0.0165 0.0139 0.013 0.0135 0.0139 0.0142 0.0143 0.0142 0.0142 0.0141 0.0139 0.0141 0.0149 0.0156 0.0155 0.0152 0.0152 0.0152 0.0153 0.0156 0.0163 0.0173 0.0185 0.0195 0.0199 0.0198 0.0192 0.0187 0.0183 0.0181 0.0178 0.0175 0.0172 0.0168 0.0164 0.016 0.0157 0.0154 0.0153 0.0152 0.0152 0.0153 0.0153 0.0152 0.0144 0.0145 0.0144 0.0146 0.0149 0.015 0.0152 0.0153 0.0153 0.0153 0.0153 0.0153 0.0152 0.0151 0.015 0.0153 0.0161 0.0175 0.0195 0.0223 0.0255 0.0305 0.0377 0.0467 0.0576 0.0666 0.0725 0.0716 0.062 0.0477 0.0337 0.0267 0.0234 0.0223 0.0225 0.0228 0.0219 0.0228 0.0233 0.0236 0.0237 0.0234 0.0227 0.0207 0.0208 0.0203 0.0207 0.0226 0.026 0.0337 0.0424 0.0437 0.045 0.0464 0.0469 0.0467 0.0455 0.0432 0.0408 0.0421 0.0433 0.0434 0.045 0.0456 0.0456 0.0457 0.0457 0.0456 0.0438 0.0407 0.0359 0.0313 0.0277 0.0255 0.0242 0.0231 0.0227 0.0211 0.0202 0.0209 0.0189 0.0155 0.0138 0.0131 0.0127 0.0119 0.0105 0.0103 0.0114 0.0136 0.0166 0.022 0.0216 0.0168 0.0246 0.0272 0.0165 0.0106 0.0081 0.0075 0.0075 0.0075 0.0085 0.0129 0.0189 0.0224 0.0221 0.0185 0.0139 0.0104 0.0087 0.0079 0.0076 0.0076 0.0075 0.0074 0.0073 0.0072 0.0072 0.0072 0.0072 0.0073 0.0077 0.0083 0.0091 0.01 0.0107 0.0113 0.0118 0.0126 0.0121 0.0116 0.0108 0.0095 0.0081 0.0074 0.0067 0.0067 0.0068 0.0069 0.0068 0.0067 0.0065 0.0065 0.0066 0.0067 0.0067 0.0068 0.0068 0.0069 0.007 0.0071 0.0073 0.0074 0.0075 0.0076 0.0076 0.0076 0.0076 0.0076 0.0076 0.0076 0.0075 0.0074 0.0075 0.0076 0.0076 0.0076 0.0075 0.0074 0.0074
0.0152 0.0152 0.0152 0.0152 0.0152 0.015 0.0142 0.0136 0.0156 0.0194 0.0192 0.0181 0.0169 0.016 0.0151 0.0142 0.0134 0.0126 0.0127 0.0133 0.0142 0.0148 0.0152 0.0153 0.0153 0.0153 0.0153 0.0152 0.0152 0.0152 0.0152 0.0152 0.0152 0.0145 0.0141 0.0138 0.0139 0.0139 0.0139 0.0151 0.0152 0.0152 0.0155 0.0165 0.0188 0.0235 0.0318 0.0424 0.0462 0.0438 0.0337 0.0289 0.0236 0.0202 0.0183 0.0174 0.0169 0.0165 0.016 0.0158 0.0156 0.0154 0.0152 0.0156 0.0161 0.0163 0.0164 0.0166 0.017 0.0171 0.0168 0.0161 0.0152 0.0148 0.0146 0.0142 0.0137 0.0124 0.0146 0.0162 0.0181 0.0217 0.0268 0.031 0.0285 0.0242 0.0232 0.0231 0.0223 0.02 0.0206 0.0212 0.0227 0.0259 0.0304 0.0331 0.0338 0.0318 0.0316 0.0301 0.027 0.0251 0.0247 0.0212 0.0125 0.0148 0.0153 0.0164 0.0166 0.0162 0.0162 0.0152 0.0148 0.0151 0.0152 0.0146 0.0138 0.0131 0.0126 0.0128 0.0136 0.0145 0.015 0.0152 0.0153 0.0152 0.0152 0.015 0.0143 0.0134 0.0142 0.0152 0.0154 0.0155 0.0155 0.0155 0.0154 0.0154 0.0153 0.0152 0.0148 0.0142 0.0136 0.0135 0.0138 0.0146 0.0152 0.0152 0.0151 0.0152 0.0152 0.0153 0.0153 0.0153 0.0153 0.0153 0.0153 0.0154 0.0155 0.0157 0.0159 0.016 0.016 0.0159 0.0159 0.016 0.0176 0.0193 0.0213 0.0228 0.023 0.0225 0.0228 0.0229 0.0228 0.0243 0.0272 0.0301 0.0309 0.0304 0.0304 0.0304 0.0304 0.0306 0.0305 0.0304 0.0304 0.0304 0.0304 0.0308 0.0308 0.0307 0.0308 0.0307 0.0307 0.0291 0.0298 0.0294 0.0285 0.025 0.0217 0.022 0.0222 0.0228 0.0245 0.0268 0.0292 0.0307 0.0334 0.0337 0.0337 0.0372 0.0381 0.0337 0.0331 0.0284 0.0242 0.0232 0.0227 0.021 0.0181 0.0167 0.0181 0.0195 0.0128 0.0142 0.0179 0.0203 0.0221 0.0233 0.0244 0.0248 0.0246 0.0238 0.022 0.0178 0.0144 0.0129 0.0134 0.0137 0.0138 0.0138 0.0137 0.0138 0.0138 0.0165 0.0194 0.0207 0.0184 0.0167 0.0156 0.0152 0.0152 0.0152 0.0153 0.0157 0.0166 0.0177 0.0186 0.019 0.0189 0.0185 0.018 0.0178 0.0176 0.0174 0.0172 0.0169 0.0165 0.0162 0.0158 0.0155 0.0153 0.0152 0.0151 0.0152 0.0153 0.0152 0.0149 0.0143 0.0143 0.0152 0.0152 0.0152 0.0152 0.0152 0.0153 0.0153 0.0154 0.0154 0.0153 0.0153 0.0152 0.0153 0.0155 0.0163 0.0177 0.0198 0.0229 0.0273 0.0337 0.043 0.0531 0.0623 0.0689 0.0715 0.0685 0.0576 0.0388 0.0291 0.0244 0.0224 0.022 0.022 0.022 0.0227 0.0233 0.0236 0.0239 0.0241 0.0237 0.0227 0.0202 0.0198 0.0192 0.019 0.0196 0.0216 0.0259 0.0314 0.0337 0.038 0.0424 0.0448 0.0465 0.0463 0.0449 0.0411 0.0397 0.0405 0.0417 0.0451 0.046 0.0457 0.0457 0.046 0.0461 0.0457 0.0445 0.0406 0.0354 0.0305 0.0275 0.026 0.0239 0.022 0.0192 0.016 0.0159 0.0161 0.0152 0.0138 0.0126 0.0116 0.0108 0.0104 0.0125 0.0134 0.015 0.0171 0.0222 0.0223 0.0206 0.0272 0.0222 0.0142 0.0092 0.0086 0.0095 0.0081 0.0074 0.0079 0.0101 0.0157 0.0206 0.0207 0.016 0.0112 0.008 0.0075 0.0076 0.0076 0.0076 0.0076 0.0076 0.0075 0.0075 0.0074 0.0073 0.0072 0.0071 0.0074 0.0081 0.0088 0.0096 0.0102 0.0106 0.0109 0.0111 0.0111 0.0117 0.0118 0.011 0.0098 0.0087 0.0077 0.0071 0.0067 0.0067 0.0067 0.0067 0.0065 0.0065 0.0066 0.0066 0.0067 0.0067 0.0068 0.0069 0.007 0.0071 0.0072 0.0074 0.0075 0.0076 0.0076 0.0076 0.0076 0.0076 0.0076 0.0074 0.0074 0.0074 0.0074 0.0075 0.0076 0.0076 0.0075 0.0074 0.0073
0.0152 0.0152 0.0152 0.0152 0.0151 0.0149 0.0142 0.0135 0.0166 0.022 0.0195 0.0177 0.0165 0.0156 0.0148 0.0139 0.0131 0.0125 0.0125 0.0134 0.0145 0.0149 0.0152 0.0154 0.0155 0.0155 0.0153 0.0152 0.0152 0.015 0.0149 0.0147 0.0144 0.0138 0.0138 0.014 0.0143 0.0147 0.0151 0.0154 0.0152 0.0156 0.0162 0.0174 0.0196 0.0237 0.0309 0.0392 0.045 0.047 0.044 0.0311 0.0228 0.0186 0.0167 0.016 0.0158 0.0157 0.0155 0.0153 0.0152 0.0152 0.0149 0.0152 0.0156 0.0152 0.0149 0.0149 0.0159 0.0164 0.0166 0.016 0.0151 0.0142 0.0138 0.0132 0.0123 0.0154 0.0196 0.0213 0.0211 0.022 0.0239 0.0272 0.0244 0.0229 0.0228 0.0226 0.0205 0.0194 0.0202 0.0223 0.026 0.0326 0.0387 0.0413 0.0389 0.0356 0.0325 0.0298 0.0272 0.0227 0.0201 0.0167 0.0124 0.0138 0.0149 0.0152 0.015 0.0149 0.0152 0.0149 0.0149 0.0152 0.0153 0.015 0.0145 0.014 0.0137 0.0138 0.0142 0.0147 0.015 0.0151 0.0153 0.0153 0.0154 0.0152 0.0142 0.0134 0.0142 0.015 0.0152 0.0153 0.0154 0.0154 0.0153 0.0153 0.0152 0.0151 0.0149 0.0143 0.0135 0.0135 0.0135 0.0147 0.0153 0.0153 0.0152 0.0152 0.0152 0.0152 0.0152 0.0153 0.0153 0.0153 0.0153 0.0153 0.0154 0.0155 0.0156 0.0156 0.0156 0.0156 0.0157 0.0165 0.0184 0.0202 0.0218 0.0228 0.023 0.0231 0.0236 0.0241 0.0246 0.026 0.0281 0.0297 0.0302 0.03 0.0305 0.0308 0.031 0.0309 0.0304 0.0306 0.0306 0.0302 0.0299 0.0305 0.0304 0.0304 0.0302 0.0286 0.028 0.0292 0.0302 0.0272 0.0243 0.0226 0.0212 0.0213 0.0217 0.0227 0.0242 0.027 0.0302 0.0304 0.0308 0.0337 0.0424 0.0463 0.0493 0.0455 0.0424 0.0315 0.0245 0.022 0.0191 0.0161 0.0152 0.0152 0.016 0.0162 0.0158 0.0126 0.015 0.0177 0.0202 0.0223 0.0239 0.025 0.0252 0.0242 0.0218 0.0176 0.0139 0.0128 0.0131 0.0134 0.0135 0.0135 0.0134 0.0136 0.0163 0.0192 0.0226 0.0207 0.018 0.0165 0.0156 0.0153 0.0152 0.0152 0.0152 0.0152 0.0161 0.0171 0.0179 0.0183 0.0183 0.018 0.0174 0.0172 0.0171 0.017 0.0168 0.0165 0.0163 0.0159 0.0156 0.0154 0.0153 0.0152 0.0152 0.0152 0.0152 0.0149 0.0145 0.0142 0.0147 0.0152 0.0152 0.0152 0.0152 0.0153 0.0153 0.0153 0.0154 0.0154 0.0154 0.0154 0.0154 0.0155 0.0158 0.0166 0.0182 0.0206 0.0241 0.03 0.0378 0.0479 0.0591 0.0666 0.0703 0.0704 0.0672 0.0593 0.0413 0.0304 0.0251 0.0231 0.0226 0.0223 0.0225 0.0229 0.0234 0.0238 0.0241 0.0242 0.0238 0.0226 0.0197 0.0194 0.0188 0.0182 0.0181 0.019 0.0212 0.0241 0.0268 0.0303 0.0337 0.0388 0.0445 0.0457 0.0447 0.0414 0.0388 0.0391 0.0405 0.0434 0.0453 0.045 0.045 0.0456 0.0457 0.0463 0.0464 0.0445 0.0396 0.0337 0.0303 0.0297 0.028 0.0238 0.02 0.0165 0.0152 0.0152 0.0152 0.0138 0.0124 0.0111 0.0107 0.0106 0.0151 0.0162 0.0175 0.0194 0.0223 0.0228 0.0209 0.0198 0.0168 0.0154 0.0145 0.0153 0.0157 0.0121 0.008 0.0074 0.0087 0.0108 0.017 0.0156 0.0118 0.0082 0.0068 0.0071 0.0075 0.0077 0.0077 0.0077 0.0076 0.0076 0.0076 0.0075 0.0074 0.0072 0.007 0.0071 0.0078 0.0085 0.0092 0.0097 0.0101 0.0105 0.0106 0.0114 0.0127 0.0135 0.0128 0.0115 0.0101 0.0089 0.008 0.0073 0.0066 0.0066 0.0066 0.0065 0.0065 0.0066 0.0066 0.0067 0.0067 0.0067 0.0068 0.0069 0.0069 0.007 0.0072 0.0074 0.0075 0.0076 0.0076 0.0077 0.0077 0.0075 0.0074 0.0073 0.0072 0.0073 0.0074 0.0075 0.0075 0.0074 0.0074 0.0073
0.0152 0.0152 0.0152 0.0152 0.0152 0.0149 0.0141 0.0134 0.0174 0.019 0.0163 0.0159 0.0156 0.0152 0.0145 0.0136 0.0128 0.0124 0.0124 0.0138 0.0151 0.0152 0.0154 0.0156 0.0157 0.0157 0.0155 0.0152 0.0151 0.0147 0.0144 0.0141 0.0137 0.0138 0.0139 0.0142 0.0145 0.0152 0.0156 0.016 0.0162 0.0168 0.0176 0.0187 0.0206 0.0236 0.0286 0.0337 0.0394 0.0424 0.0383 0.026 0.0199 0.0168 0.0154 0.015 0.015 0.0152 0.0153 0.0153 0.0152 0.0144 0.0142 0.0146 0.015 0.0135 0.0119 0.012 0.0142 0.0149 0.0158 0.0151 0.0138 0.0131 0.013 0.0123 0.0149 0.0196 0.0229 0.0249 0.024 0.0235 0.0231 0.0232 0.0223 0.0221 0.0225 0.0208 0.0186 0.0191 0.0217 0.026 0.0325 0.0398 0.0446 0.044 0.0337 0.0306 0.0281 0.0247 0.0213 0.0173 0.0156 0.0142 0.0122 0.0158 0.0169 0.0166 0.0158 0.0153 0.0151 0.0151 0.0152 0.0152 0.0153 0.0153 0.015 0.0148 0.0146 0.0147 0.0149 0.0152 0.0152 0.0152 0.0153 0.0155 0.0156 0.0156 0.0151 0.0133 0.0141 0.0152 0.0153 0.0153 0.0153 0.0153 0.0153 0.0152 0.0152 0.0152 0.0152 0.0147 0.0138 0.0135 0.0141 0.0158 0.0161 0.0157 0.0152 0.0151 0.0151 0.0151 0.0152 0.0152 0.0152 0.0152 0.0152 0.0152 0.0153 0.0153 0.0153 0.0154 0.0154 0.0154 0.0155 0.0172 0.0192 0.021 0.0222 0.0226 0.0228 0.0236 0.0246 0.0258 0.0271 0.0283 0.0288 0.0283 0.0273 0.0275 0.0291 0.03 0.0306 0.0302 0.0296 0.0294 0.029 0.028 0.0272 0.0285 0.0277 0.0279 0.0276 0.0267 0.0286 0.0304 0.0291 0.0245 0.0217 0.0203 0.0204 0.0206 0.021 0.0218 0.023 0.0258 0.0295 0.0304 0.0308 0.0324 0.0387 0.0424 0.0411 0.0454 0.0428 0.0299 0.0236 0.0206 0.0179 0.0154 0.0153 0.0152 0.0152 0.0153 0.0151 0.0125 0.0136 0.0155 0.0181 0.0207 0.0229 0.0244 0.0249 0.0241 0.0214 0.0169 0.0128 0.0124 0.013 0.0132 0.0133 0.0132 0.0138 0.0143 0.016 0.0175 0.0185 0.0165 0.0154 0.0154 0.0153 0.0152 0.0152 0.0152 0.0152 0.0153 0.016 0.0168 0.0175 0.0179 0.0178 0.0175 0.017 0.0169 0.0167 0.0166 0.0164 0.0162 0.016 0.0157 0.0154 0.0153 0.0152 0.0152 0.0152 0.0152 0.0148 0.0144 0.0141 0.0145 0.0149 0.0151 0.0152 0.0152 0.0152 0.0152 0.0153 0.0153 0.0154 0.0155 0.0155 0.0156 0.0156 0.0158 0.0163 0.0173 0.0192 0.0223 0.0268 0.0333 0.0419 0.0523 0.0656 0.0711 0.0709 0.0676 0.0632 0.0558 0.043 0.0323 0.0268 0.0246 0.0239 0.0225 0.023 0.023 0.0234 0.0237 0.024 0.0241 0.0238 0.0228 0.0208 0.019 0.0186 0.018 0.0177 0.0179 0.0191 0.021 0.0231 0.0259 0.0289 0.0337 0.0424 0.0456 0.0451 0.0422 0.0389 0.0374 0.0384 0.0404 0.0419 0.0423 0.0425 0.0433 0.0442 0.0456 0.0467 0.0464 0.0439 0.039 0.0337 0.0324 0.0301 0.0261 0.0221 0.018 0.0153 0.0149 0.0151 0.0136 0.0122 0.011 0.0109 0.0163 0.0226 0.0216 0.0209 0.0214 0.0228 0.0227 0.021 0.0162 0.0184 0.0213 0.0222 0.0226 0.0203 0.0157 0.0091 0.0076 0.0073 0.0086 0.0122 0.01 0.0079 0.0066 0.0064 0.0071 0.0075 0.0077 0.0077 0.0077 0.0076 0.0076 0.0076 0.0075 0.0073 0.0071 0.007 0.0071 0.0076 0.0083 0.0089 0.0094 0.0097 0.01 0.0106 0.0121 0.0138 0.0151 0.0143 0.0129 0.0114 0.01 0.0089 0.008 0.0072 0.0065 0.0065 0.0065 0.0065 0.0066 0.0066 0.0066 0.0067 0.0067 0.0067 0.0067 0.0067 0.0068 0.007 0.0071 0.0073 0.0075 0.0077 0.0077 0.0077 0.0075 0.0072 0.0071 0.0071 0.0071 0.0073 0.0074 0.0074 0.0073 0.0073 0.0072
0.0152 0.0152 0.0152 0.0152 0.0153 0.0152 0.014 0.0133 0.016 0.0166 0.0152 0.0152 0.0152 0.015 0.0144 0.0134 0.0125 0.0124 0.0133 0.0143 0.0152 0.0154 0.0156 0.0159 0.016 0.016 0.0159 0.0156 0.0152 0.0143 0.014 0.0136 0.0138 0.0141 0.0142 0.0143 0.0146 0.0152 0.016 0.0168 0.0176 0.0186 0.0197 0.0209 0.0228 0.0252 0.0281 0.0308 0.0322 0.0313 0.026 0.0206 0.0172 0.0154 0.0147 0.0145 0.0147 0.0149 0.0152 0.0155 0.0156 0.0151 0.0135 0.0135 0.0134 0.0119 0.013 0.0143 0.012 0.0121 0.0145 0.0135 0.0122 0.0118 0.0122 0.0143 0.0175 0.0217 0.0249 0.0289 0.0287 0.0282 0.0248 0.0227 0.0214 0.0207 0.0202 0.0188 0.018 0.0209 0.026 0.0337 0.0384 0.0424 0.0424 0.0337 0.026 0.0239 0.0212 0.0179 0.0159 0.0147 0.0134 0.0119 0.0138 0.0197 0.0199 0.0188 0.0173 0.016 0.0154 0.0152 0.0148 0.0149 0.0152 0.0152 0.0152 0.0152 0.0152 0.0152 0.0152 0.0153 0.0152 0.0152 0.0153 0.0154 0.0156 0.0156 0.0151 0.0133 0.0141 0.0152 0.0153 0.0152 0.0151 0.0151 0.0152 0.0152 0.0152 0.0153 0.0153 0.0152 0.014 0.0134 0.0195 0.0187 0.0174 0.0161 0.0152 0.015 0.015 0.0151 0.0151 0.0152 0.0152 0.0152 0.0152 0.0152 0.0152 0.0152 0.0152 0.0152 0.0152 0.0152 0.0167 0.0183 0.0203 0.022 0.0228 0.0228 0.0232 0.0243 0.0259 0.028 0.0301 0.0315 0.0303 0.027 0.0237 0.0232 0.0244 0.0266 0.0279 0.0258 0.0242 0.0236 0.023 0.0217 0.0227 0.0234 0.0235 0.0251 0.0253 0.0276 0.0302 0.0302 0.0281 0.0232 0.0204 0.0197 0.0198 0.0202 0.0206 0.0211 0.0219 0.0233 0.0262 0.0286 0.0302 0.0298 0.0311 0.0312 0.032 0.0424 0.0424 0.0299 0.0235 0.0208 0.0193 0.0184 0.0183 0.0168 0.0153 0.0152 0.0154 0.0146 0.0123 0.0137 0.0164 0.0191 0.0215 0.0233 0.0242 0.0239 0.0217 0.0171 0.0131 0.0127 0.0129 0.013 0.013 0.0136 0.0142 0.0147 0.0152 0.0153 0.0153 0.0148 0.0147 0.0152 0.0152 0.0152 0.0152 0.0152 0.0153 0.0156 0.0161 0.0167 0.0173 0.0176 0.0176 0.0173 0.0169 0.0166 0.0164 0.0162 0.016 0.0159 0.0157 0.0155 0.0153 0.0152 0.0152 0.0153 0.0153 0.0152 0.0144 0.014 0.0146 0.0152 0.0152 0.0152 0.0152 0.0152 0.0151 0.0152 0.0153 0.0154 0.0155 0.0156 0.0157 0.0158 0.016 0.0163 0.017 0.0181 0.0202 0.0237 0.0297 0.0373 0.0457 0.0549 0.0729 0.075 0.071 0.0641 0.0599 0.0524 0.0424 0.0328 0.0279 0.0257 0.0243 0.0235 0.0228 0.023 0.0232 0.0234 0.0237 0.0238 0.0237 0.0228 0.0212 0.0195 0.0184 0.0182 0.0178 0.0179 0.0188 0.0204 0.0226 0.0247 0.0278 0.033 0.0407 0.0451 0.0456 0.0434 0.0395 0.0363 0.0364 0.0372 0.0381 0.0384 0.0388 0.0398 0.0414 0.0435 0.0457 0.0466 0.0453 0.0439 0.0409 0.0359 0.0318 0.028 0.0234 0.0192 0.0154 0.0142 0.0136 0.0124 0.0112 0.0129 0.0155 0.0245 0.0323 0.026 0.0232 0.0224 0.0227 0.0228 0.0223 0.0218 0.0249 0.0286 0.0295 0.0275 0.0217 0.0154 0.0088 0.007 0.0073 0.0096 0.0085 0.0073 0.0064 0.0061 0.0066 0.0075 0.0077 0.0077 0.0076 0.0076 0.0076 0.0076 0.0075 0.0074 0.0073 0.0071 0.0071 0.007 0.0076 0.0082 0.0087 0.009 0.0094 0.0096 0.0108 0.0125 0.0142 0.0152 0.0148 0.0137 0.0122 0.0108 0.0096 0.0085 0.0075 0.0068 0.0064 0.0064 0.0065 0.0065 0.0066 0.0066 0.0066 0.0066 0.0066 0.0066 0.0067 0.0067 0.0068 0.007 0.0073 0.0076 0.0076 0.0076 0.0075 0.0074 0.0071 0.007 0.007 0.007 0.0071 0.0072 0.0072 0.0072 0.0071 0.0071
0.0152 0.0151 0.015 0.0151 0.0152 0.015 0.0141 0.0132 0.0147 0.0154 0.0152 0.0152 0.0153 0.0152 0.0143 0.0133 0.0123 0.0127 0.0138 0.0147 0.0152 0.0155 0.0158 0.016 0.0161 0.0161 0.0159 0.0157 0.015 0.0137 0.0135 0.0139 0.0143 0.0146 0.0146 0.0146 0.0147 0.0152 0.0165 0.0179 0.0193 0.0208 0.0225 0.0237 0.026 0.0277 0.0292 0.0304 0.0291 0.0251 0.0211 0.0179 0.016 0.0152 0.0148 0.0147 0.0147 0.0149 0.0153 0.0157 0.016 0.0158 0.0149 0.0125 0.0118 0.0133 0.015 0.0157 0.0146 0.0126 0.0121 0.0121 0.0122 0.0122 0.0133 0.0154 0.0197 0.0242 0.0276 0.03 0.0304 0.0303 0.0281 0.0235 0.0209 0.0192 0.018 0.017 0.0205 0.0243 0.0322 0.0424 0.0387 0.0337 0.0311 0.0256 0.0214 0.0199 0.0166 0.0166 0.0181 0.0195 0.0132 0.0117 0.0137 0.0183 0.0203 0.02 0.0183 0.0164 0.0155 0.0152 0.0148 0.0145 0.0147 0.0149 0.0152 0.0153 0.0152 0.0152 0.0152 0.0152 0.0152 0.0152 0.0152 0.0152 0.0152 0.0152 0.0143 0.0132 0.0142 0.0152 0.0152 0.015 0.0149 0.0149 0.015 0.0152 0.0152 0.0152 0.0153 0.0152 0.0141 0.0134 0.0163 0.0174 0.0169 0.0161 0.0153 0.0152 0.0151 0.0151 0.0152 0.0152 0.0152 0.0152 0.0152 0.0152 0.0151 0.0151 0.0151 0.0151 0.0151 0.0152 0.017 0.0189 0.021 0.0227 0.0231 0.023 0.0235 0.0248 0.027 0.0301 0.0337 0.0371 0.0327 0.0267 0.0225 0.0211 0.0216 0.0227 0.0224 0.02 0.0205 0.0209 0.0213 0.0225 0.0222 0.0225 0.0228 0.0238 0.0249 0.0261 0.0276 0.027 0.024 0.0206 0.019 0.0193 0.0197 0.0202 0.0208 0.0213 0.0217 0.0223 0.0233 0.0258 0.0278 0.0251 0.0253 0.0244 0.0312 0.0386 0.0337 0.026 0.0227 0.0215 0.0215 0.0218 0.0219 0.0185 0.0154 0.0149 0.0152 0.0141 0.0122 0.0128 0.0153 0.0177 0.0199 0.0217 0.0229 0.0233 0.0222 0.0172 0.0126 0.0125 0.0127 0.0128 0.0133 0.0138 0.0145 0.0152 0.0153 0.0152 0.0149 0.0146 0.0146 0.015 0.0152 0.0152 0.0152 0.0153 0.0154 0.0157 0.0161 0.0167 0.0171 0.0174 0.0174 0.0171 0.0167 0.0163 0.016 0.0158 0.0157 0.0156 0.0155 0.0153 0.0152 0.0152 0.0152 0.0152 0.0152 0.0146 0.0139 0.0142 0.0152 0.0154 0.0153 0.0151 0.0152 0.0151 0.015 0.0151 0.0153 0.0154 0.0156 0.0157 0.0159 0.0161 0.0164 0.0169 0.0178 0.0192 0.0216 0.0255 0.0322 0.0409 0.0489 0.0596 0.0729 0.0747 0.0701 0.063 0.0576 0.0483 0.0386 0.0315 0.0281 0.0263 0.0247 0.0283 0.0303 0.023 0.0231 0.0228 0.0232 0.0235 0.0234 0.0228 0.0213 0.0196 0.0182 0.0182 0.018 0.0182 0.019 0.0206 0.0227 0.0248 0.0282 0.0337 0.0424 0.0459 0.0462 0.045 0.041 0.0367 0.0346 0.0344 0.0345 0.0347 0.0347 0.036 0.0382 0.0409 0.0443 0.0456 0.043 0.0397 0.044 0.0391 0.0341 0.0296 0.0243 0.0201 0.0156 0.0137 0.0125 0.0114 0.0153 0.0152 0.0184 0.0288 0.0319 0.0268 0.0236 0.0226 0.0228 0.0232 0.0248 0.0273 0.0299 0.0295 0.0265 0.0229 0.018 0.014 0.0086 0.0068 0.0072 0.0082 0.0074 0.0067 0.0063 0.0064 0.0069 0.0074 0.0076 0.0075 0.0075 0.0075 0.0076 0.0075 0.0074 0.0073 0.0072 0.0071 0.007 0.007 0.0075 0.008 0.0084 0.0087 0.009 0.0098 0.0112 0.0128 0.0143 0.0151 0.0149 0.0139 0.0127 0.0113 0.01 0.0088 0.0078 0.0069 0.0064 0.0064 0.0064 0.0065 0.0065 0.0065 0.0065 0.0066 0.0066 0.0066 0.0067 0.0067 0.0067 0.0069 0.0072 0.0075 0.0075 0.0074 0.0073 0.0072 0.007 0.0069 0.0069 0.0069 0.007 0.007 0.007 0.007 0.007 0.0069
0.0152 0.0151 0.0149 0.015 0.0152 0.0152 0.014 0.0131 0.0141 0.0149 0.0152 0.0154 0.0152 0.0146 0.0138 0.0132 0.0122 0.0129 0.0142 0.0152 0.0153 0.0154 0.0157 0.016 0.0159 0.0158 0.0152 0.015 0.0134 0.0135 0.0139 0.0144 0.0149 0.0152 0.0152 0.0152 0.0152 0.0161 0.0176 0.0194 0.0211 0.0229 0.0253 0.0276 0.0298 0.0304 0.0305 0.0308 0.0292 0.0238 0.02 0.0176 0.0165 0.016 0.0157 0.0154 0.0151 0.015 0.0153 0.0157 0.016 0.0156 0.0142 0.0117 0.0133 0.0151 0.016 0.0161 0.0152 0.0136 0.0131 0.0139 0.0149 0.015 0.0155 0.0169 0.0222 0.0277 0.0299 0.0304 0.0305 0.0295 0.027 0.0232 0.0202 0.0179 0.016 0.0177 0.02 0.0234 0.029 0.0337 0.0311 0.026 0.0234 0.0202 0.0176 0.0163 0.0152 0.0174 0.0201 0.0204 0.0158 0.0116 0.0125 0.0166 0.0204 0.0208 0.019 0.0163 0.0152 0.0151 0.0151 0.0152 0.0142 0.0145 0.0152 0.0153 0.0152 0.0152 0.0152 0.0152 0.0152 0.0152 0.0152 0.0152 0.0148 0.0144 0.0137 0.0131 0.0153 0.0158 0.0152 0.0147 0.0146 0.0147 0.0149 0.0151 0.0152 0.0152 0.0152 0.0153 0.0153 0.0143 0.0133 0.0152 0.0156 0.0156 0.0152 0.0152 0.0152 0.0152 0.0152 0.0152 0.0152 0.0152 0.0152 0.0151 0.015 0.015 0.015 0.015 0.0152 0.0159 0.0174 0.0193 0.021 0.0223 0.0228 0.0228 0.0233 0.0247 0.0272 0.0313 0.0373 0.0424 0.0329 0.0251 0.0211 0.0196 0.0197 0.0201 0.0193 0.0196 0.021 0.0227 0.0242 0.0245 0.0237 0.024 0.0246 0.0232 0.0231 0.023 0.0234 0.0224 0.0202 0.0184 0.0186 0.0193 0.0201 0.0209 0.0217 0.0223 0.0228 0.0229 0.0225 0.0229 0.0236 0.0239 0.0235 0.024 0.0244 0.026 0.0254 0.0232 0.0221 0.0221 0.0228 0.023 0.0224 0.0187 0.0154 0.0146 0.0145 0.0138 0.0129 0.012 0.0146 0.0162 0.0179 0.0192 0.0202 0.021 0.0209 0.0166 0.013 0.0124 0.0126 0.0129 0.0133 0.0138 0.0145 0.015 0.0152 0.0153 0.0152 0.0149 0.0149 0.0151 0.0152 0.0152 0.0152 0.0153 0.0154 0.0156 0.0161 0.0165 0.0169 0.0171 0.0171 0.0169 0.0165 0.0161 0.0157 0.0155 0.0154 0.0154 0.0154 0.0153 0.0152 0.0152 0.0152 0.0151 0.0147 0.0142 0.0138 0.0151 0.0154 0.0152 0.0152 0.0146 0.0147 0.0149 0.0149 0.0151 0.0153 0.0154 0.0156 0.0159 0.0162 0.0165 0.0169 0.0176 0.0186 0.0202 0.023 0.0277 0.0335 0.0424 0.05 0.0611 0.0729 0.0726 0.0662 0.0576 0.0507 0.0424 0.0337 0.0298 0.0277 0.0258 0.0263 0.0337 0.0424 0.0308 0.023 0.0222 0.0228 0.0228 0.0228 0.0222 0.0211 0.0196 0.0181 0.0181 0.0182 0.0185 0.0192 0.0206 0.0226 0.0247 0.0288 0.0355 0.0432 0.046 0.0457 0.0453 0.0428 0.0385 0.0335 0.0325 0.032 0.0317 0.031 0.0327 0.0357 0.0396 0.0438 0.0458 0.0443 0.0424 0.0346 0.0349 0.0321 0.0278 0.022 0.0172 0.0145 0.013 0.0116 0.0212 0.0198 0.0184 0.0255 0.0348 0.0308 0.0248 0.0228 0.0228 0.0233 0.0266 0.0296 0.0302 0.0281 0.0234 0.0184 0.0167 0.0154 0.0143 0.0097 0.0072 0.0072 0.0074 0.0072 0.007 0.007 0.0071 0.0074 0.0076 0.0076 0.0075 0.0074 0.0075 0.0076 0.0075 0.0074 0.0072 0.0071 0.007 0.0069 0.0069 0.0074 0.0078 0.0081 0.0084 0.0087 0.01 0.0117 0.0133 0.0145 0.015 0.0148 0.014 0.0128 0.0115 0.0102 0.009 0.0079 0.007 0.0064 0.0064 0.0064 0.0064 0.0065 0.0065 0.0065 0.0066 0.0066 0.0066 0.0067 0.0067 0.0067 0.0068 0.007 0.007 0.007 0.007 0.007 0.007 0.0068 0.0068 0.0068 0.0068 0.0068 0.0068 0.0068 0.0068 0.0068 0.0068
0.0152 0.0152 0.0149 0.0152 0.0154 0.0153 0.015 0.0129 0.0138 0.0144 0.0149 0.0151 0.0143 0.0135 0.0128 0.0121 0.0122 0.0132 0.0145 0.0152 0.0152 0.0152 0.0155 0.0156 0.0152 0.0149 0.0133 0.0133 0.0135 0.0137 0.0142 0.0147 0.0152 0.0153 0.0155 0.0157 0.0162 0.0173 0.019 0.0208 0.0227 0.0247 0.0274 0.0302 0.0316 0.032 0.032 0.0316 0.0296 0.0244 0.0208 0.0189 0.0181 0.0178 0.0173 0.0165 0.0157 0.0152 0.0152 0.0154 0.0157 0.0149 0.0117 0.0117 0.0146 0.0157 0.0162 0.016 0.0152 0.0144 0.0143 0.0151 0.0159 0.0159 0.016 0.0191 0.0233 0.0279 0.0304 0.0306 0.0288 0.0253 0.0243 0.0224 0.0192 0.0164 0.0152 0.0162 0.0177 0.02 0.0227 0.0242 0.0231 0.0206 0.0187 0.0169 0.0156 0.0152 0.0163 0.0193 0.0225 0.0224 0.0206 0.0195 0.0114 0.016 0.0216 0.022 0.0198 0.0158 0.0149 0.015 0.0152 0.0152 0.014 0.0141 0.0151 0.0152 0.0152 0.0152 0.0152 0.0152 0.0152 0.0152 0.0153 0.0152 0.0144 0.0137 0.0131 0.0159 0.0186 0.0173 0.0152 0.0145 0.0143 0.0145 0.0148 0.015 0.0149 0.0149 0.0153 0.0174 0.0188 0.0161 0.0131 0.0132 0.0144 0.0152 0.0152 0.0152 0.0152 0.0152 0.0152 0.0152 0.0152 0.0152 0.0152 0.015 0.0149 0.0149 0.0149 0.0152 0.0156 0.0165 0.018 0.0195 0.0208 0.0217 0.0222 0.0224 0.0228 0.0238 0.0256 0.029 0.0327 0.0331 0.026 0.0217 0.0192 0.0183 0.0184 0.0187 0.0188 0.0197 0.0224 0.0245 0.0268 0.0279 0.0283 0.0295 0.0298 0.0278 0.0235 0.0215 0.0202 0.0188 0.0177 0.0179 0.0187 0.0198 0.021 0.0221 0.0231 0.0238 0.0245 0.0252 0.0229 0.0222 0.0227 0.0229 0.024 0.0257 0.0236 0.0227 0.0233 0.0222 0.0217 0.0221 0.0227 0.0218 0.0202 0.0173 0.0152 0.0143 0.014 0.0135 0.0127 0.0118 0.0132 0.014 0.0152 0.0158 0.0162 0.0164 0.0162 0.0141 0.0124 0.0124 0.0126 0.0129 0.0132 0.0136 0.0142 0.0146 0.0149 0.0152 0.0152 0.0152 0.0151 0.0152 0.0152 0.0152 0.0152 0.0152 0.0153 0.0155 0.0158 0.0163 0.0167 0.0169 0.0169 0.0167 0.0163 0.0159 0.0155 0.0152 0.0152 0.0153 0.0153 0.0153 0.0153 0.0152 0.0153 0.0152 0.0144 0.0137 0.014 0.0152 0.0152 0.0146 0.0144 0.0148 0.0152 0.0151 0.0152 0.0151 0.0153 0.0154 0.0157 0.0161 0.0164 0.0168 0.0174 0.0182 0.0192 0.0208 0.0228 0.0256 0.0288 0.032 0.0453 0.0584 0.0702 0.0692 0.0605 0.0489 0.0429 0.0365 0.0312 0.0289 0.0268 0.0268 0.0277 0.0315 0.0337 0.0302 0.0264 0.023 0.0221 0.0218 0.0217 0.0214 0.0206 0.0195 0.0181 0.0181 0.0183 0.0185 0.0191 0.02 0.0213 0.0231 0.0271 0.0337 0.0424 0.0452 0.0462 0.0462 0.0455 0.0427 0.037 0.0319 0.0306 0.0298 0.0291 0.0303 0.0334 0.0381 0.0437 0.0485 0.0501 0.0337 0.0296 0.0289 0.0273 0.0227 0.0176 0.0149 0.0133 0.0118 0.0168 0.0197 0.0197 0.0208 0.0279 0.0301 0.0257 0.0229 0.0228 0.0238 0.0253 0.0294 0.0301 0.0259 0.0216 0.0174 0.0153 0.0152 0.0152 0.0141 0.0098 0.0077 0.0071 0.0071 0.0074 0.0078 0.0081 0.0082 0.0083 0.0081 0.0078 0.0076 0.0074 0.0075 0.0075 0.0075 0.0074 0.0072 0.007 0.0069 0.0069 0.0069 0.0073 0.0077 0.0078 0.0081 0.0089 0.0104 0.0123 0.0139 0.0149 0.0151 0.0147 0.0139 0.0128 0.0115 0.0103 0.0091 0.008 0.0071 0.0063 0.0064 0.0064 0.0064 0.0064 0.0065 0.0065 0.0066 0.0066 0.0066 0.0067 0.0066 0.0067 0.0067 0.0067 0.0066 0.0067 0.0067 0.0068 0.0068 0.0067 0.0067 0.0067 0.0067 0.0067 0.0067 0.0067 0.0067 0.0067 0.0067
0.0151 0.0152 0.0153 0.0165 0.0167 0.0154 0.014 0.0128 0.0135 0.0138 0.0138 0.0133 0.0127 0.0123 0.0119 0.0115 0.0121 0.0139 0.0152 0.0153 0.0152 0.0153 0.0152 0.015 0.014 0.0132 0.0132 0.0133 0.0136 0.0139 0.0143 0.0147 0.015 0.0152 0.0156 0.0162 0.0171 0.0184 0.0201 0.0218 0.0229 0.0252 0.0278 0.0303 0.0317 0.0324 0.0326 0.0322 0.0304 0.0266 0.0228 0.0208 0.0205 0.0202 0.0194 0.0179 0.0163 0.0152 0.015 0.0152 0.0157 0.0156 0.0142 0.0116 0.0138 0.0152 0.016 0.0161 0.0156 0.0152 0.0152 0.0161 0.017 0.0177 0.0188 0.0219 0.024 0.027 0.0291 0.0293 0.0252 0.0233 0.0228 0.0214 0.0187 0.0156 0.0151 0.0152 0.0153 0.0166 0.0174 0.0173 0.0175 0.0169 0.0162 0.0155 0.0152 0.0157 0.0176 0.0204 0.0225 0.0217 0.0188 0.015 0.0112 0.0195 0.0228 0.0225 0.0206 0.0166 0.0152 0.0152 0.0152 0.0154 0.0151 0.0136 0.0142 0.0153 0.0157 0.0152 0.015 0.0152 0.0152 0.0152 0.0152 0.0149 0.014 0.013 0.0142 0.0194 0.0226 0.0185 0.0153 0.0144 0.0142 0.0145 0.0149 0.0152 0.0149 0.0152 0.0161 0.0193 0.0224 0.0174 0.0131 0.0131 0.0144 0.015 0.0152 0.0152 0.0152 0.0152 0.0152 0.0151 0.015 0.0152 0.0151 0.0149 0.0148 0.0148 0.0152 0.0153 0.0158 0.0169 0.0184 0.0196 0.0205 0.0212 0.0217 0.0222 0.0228 0.023 0.0229 0.0243 0.0267 0.0254 0.0218 0.0191 0.0177 0.0173 0.0176 0.018 0.0182 0.0198 0.0227 0.0253 0.0287 0.0303 0.0304 0.0302 0.0296 0.0267 0.0229 0.0204 0.0181 0.0169 0.0173 0.0183 0.0193 0.0208 0.0224 0.024 0.0252 0.0251 0.0241 0.0235 0.0218 0.0215 0.0221 0.0252 0.0287 0.0293 0.0274 0.0231 0.0214 0.021 0.0207 0.0207 0.0206 0.0193 0.0173 0.0153 0.0145 0.0141 0.0137 0.0132 0.0125 0.0117 0.0123 0.0117 0.0117 0.0118 0.0119 0.0122 0.0125 0.0122 0.0123 0.0127 0.0131 0.0129 0.0131 0.0134 0.0138 0.0142 0.0146 0.0149 0.0152 0.0152 0.0152 0.0153 0.0153 0.0153 0.0152 0.0152 0.0152 0.0153 0.0155 0.0159 0.0163 0.0165 0.0166 0.0164 0.0162 0.0158 0.0155 0.0152 0.015 0.0152 0.0153 0.0153 0.0153 0.0152 0.0152 0.015 0.0144 0.0137 0.0138 0.0145 0.0145 0.0142 0.0146 0.0152 0.0153 0.0152 0.0152 0.0152 0.0153 0.0155 0.0159 0.0163 0.0167 0.0171 0.0178 0.0186 0.0198 0.0211 0.0227 0.0239 0.0269 0.032 0.0461 0.0612 0.0729 0.0678 0.0576 0.0461 0.0381 0.0324 0.0299 0.0277 0.0281 0.0278 0.0281 0.0292 0.0292 0.027 0.0238 0.0221 0.0214 0.0207 0.0207 0.0205 0.02 0.0192 0.0181 0.0181 0.0183 0.0185 0.0188 0.0192 0.0199 0.021 0.0235 0.028 0.0337 0.0397 0.0446 0.0458 0.0466 0.0451 0.0413 0.0376 0.0346 0.0314 0.0288 0.0283 0.0307 0.0349 0.0395 0.0409 0.0337 0.0281 0.0272 0.0244 0.0215 0.0174 0.0146 0.0132 0.012 0.0141 0.0272 0.0184 0.0183 0.021 0.0272 0.0251 0.0229 0.0243 0.0258 0.027 0.0293 0.0303 0.0286 0.021 0.0179 0.0153 0.0148 0.0151 0.0145 0.0114 0.0081 0.0083 0.0071 0.0072 0.0082 0.0091 0.0096 0.0097 0.0094 0.009 0.0084 0.0079 0.0076 0.0075 0.0076 0.0075 0.0073 0.0071 0.007 0.0069 0.0069 0.0071 0.0074 0.0077 0.0078 0.0078 0.009 0.0109 0.0129 0.0146 0.0153 0.0152 0.0146 0.0137 0.0126 0.0114 0.0102 0.0091 0.008 0.0071 0.0063 0.0063 0.0063 0.0063 0.0064 0.0064 0.0065 0.0066 0.0066 0.0066 0.0066 0.0066 0.0065 0.0065 0.0064 0.0065 0.0065 0.0066 0.0066 0.0066 0.0066 0.0066 0.0066 0.0066 0.0066 0.0066 0.0066 0.0066 0.0066 0.0066
0.0152 0.0157 0.0168 0.0195 0.0219 0.0179 0.0145 0.0126 0.0131 0.0131 0.0127 0.0118 0.0118 0.0119 0.012 0.012 0.0135 0.0151 0.0155 0.0152 0.0152 0.015 0.014 0.0131 0.0131 0.0132 0.0134 0.0135 0.0139 0.0142 0.0145 0.0148 0.0149 0.0152 0.0158 0.0166 0.0177 0.0192 0.0209 0.0227 0.0234 0.025 0.027 0.029 0.0305 0.0317 0.0325 0.0327 0.0317 0.0293 0.0249 0.0226 0.0227 0.0227 0.0214 0.0192 0.0169 0.0152 0.015 0.0152 0.0158 0.0158 0.0146 0.0116 0.0146 0.0155 0.0161 0.0165 0.0166 0.0166 0.0168 0.0175 0.0184 0.0194 0.0206 0.0222 0.023 0.0252 0.0267 0.0264 0.0242 0.0228 0.0224 0.0218 0.0201 0.0173 0.0153 0.0149 0.0149 0.0152 0.0152 0.0152 0.0152 0.0153 0.0152 0.0152 0.0154 0.0163 0.0182 0.0206 0.022 0.02 0.016 0.011 0.0149 0.0204 0.0225 0.0209 0.017 0.0152 0.0152 0.0152 0.0152 0.0152 0.0142 0.0133 0.0142 0.0176 0.0177 0.0163 0.0152 0.0151 0.0152 0.0152 0.0153 0.0152 0.0142 0.0129 0.0136 0.0196 0.0201 0.0164 0.015 0.0144 0.0143 0.0147 0.0152 0.0155 0.0153 0.0158 0.0152 0.0169 0.018 0.0151 0.0131 0.0141 0.0152 0.0153 0.0152 0.0152 0.0152 0.0152 0.0152 0.0151 0.0149 0.0148 0.0148 0.0147 0.0147 0.0149 0.0151 0.0152 0.0156 0.0171 0.0188 0.0199 0.0204 0.0207 0.0213 0.0221 0.0228 0.0241 0.023 0.0225 0.0226 0.0211 0.019 0.0174 0.0166 0.0166 0.017 0.0174 0.0182 0.02 0.0229 0.0258 0.0299 0.0304 0.0294 0.027 0.0247 0.0229 0.0209 0.0192 0.0163 0.0165 0.017 0.0182 0.0199 0.022 0.0244 0.0271 0.0299 0.027 0.023 0.0215 0.0207 0.0218 0.0231 0.0268 0.0302 0.0299 0.0253 0.0222 0.0208 0.0199 0.0194 0.0191 0.0184 0.017 0.0153 0.0148 0.0146 0.0143 0.014 0.0135 0.0128 0.0121 0.0115 0.0115 0.0118 0.0128 0.013 0.0121 0.0121 0.0133 0.0145 0.0153 0.0155 0.0144 0.0135 0.0134 0.0136 0.0138 0.0142 0.0147 0.0152 0.0148 0.0152 0.0153 0.0153 0.0152 0.0152 0.0152 0.0152 0.0152 0.0152 0.0156 0.0159 0.0162 0.0163 0.0162 0.016 0.0157 0.0155 0.0153 0.0152 0.0149 0.0152 0.0153 0.0152 0.0152 0.0153 0.0152 0.0147 0.0139 0.0135 0.0139 0.0139 0.0145 0.0152 0.0154 0.0153 0.0152 0.0152 0.0152 0.0155 0.0159 0.0162 0.0165 0.0169 0.0173 0.0181 0.0189 0.02 0.0213 0.0225 0.0239 0.0292 0.0374 0.0489 0.0606 0.0666 0.062 0.0527 0.0426 0.0347 0.0301 0.0285 0.0299 0.0295 0.0286 0.0279 0.0276 0.0267 0.0249 0.0228 0.0217 0.0209 0.0203 0.0197 0.0196 0.0193 0.0189 0.018 0.0181 0.0183 0.0185 0.0185 0.0186 0.0188 0.0192 0.0205 0.0228 0.026 0.0332 0.0424 0.0461 0.0473 0.046 0.0448 0.0437 0.0409 0.0364 0.0313 0.0277 0.0286 0.0313 0.0346 0.035 0.0294 0.0247 0.0216 0.018 0.0159 0.0141 0.0127 0.0122 0.0143 0.0162 0.0209 0.0162 0.017 0.02 0.0231 0.0229 0.0246 0.0284 0.0299 0.0299 0.0305 0.0304 0.0291 0.0232 0.0191 0.016 0.0151 0.0145 0.0115 0.0083 0.0071 0.0074 0.007 0.0076 0.0094 0.0109 0.0115 0.0113 0.0107 0.0099 0.0091 0.0083 0.0078 0.0075 0.0075 0.0075 0.0073 0.0071 0.0069 0.0068 0.0068 0.0071 0.0075 0.0077 0.0077 0.0078 0.0092 0.0113 0.0134 0.0151 0.0154 0.0151 0.0144 0.0135 0.0124 0.0112 0.0101 0.009 0.008 0.0071 0.0062 0.0062 0.0063 0.0063 0.0064 0.0064 0.0065 0.0065 0.0066 0.0066 0.0066 0.0065 0.0064 0.0064 0.0064 0.0064 0.0065 0.0065 0.0065 0.0065 0.0065 0.0065 0.0065 0.0065 0.0065 0.0065 0.0065 0.0065 0.0065 0.0065
0.0152 0.0156 0.0166 0.0185 0.0196 0.0169 0.0137 0.0124 0.0124 0.0123 0.0117 0.0117 0.012 0.0127 0.0148 0.0148 0.0152 0.0152 0.0152 0.0146 0.0139 0.0129 0.013 0.0131 0.0132 0.0134 0.0137 0.0139 0.0143 0.0146 0.0149 0.0149 0.0149 0.0152 0.016 0.017 0.0181 0.0194 0.0208 0.0221 0.0228 0.0242 0.0256 0.027 0.0287 0.0304 0.0317 0.0326 0.0325 0.0312 0.0284 0.0242 0.0238 0.0237 0.0227 0.0201 0.0174 0.0155 0.0152 0.0152 0.0156 0.0152 0.013 0.0115 0.0142 0.0152 0.0163 0.0171 0.0177 0.0181 0.0185 0.0191 0.0199 0.0208 0.0219 0.0228 0.0228 0.024 0.0245 0.0243 0.0234 0.0228 0.0228 0.0228 0.0224 0.0199 0.0174 0.0153 0.0152 0.0147 0.0152 0.0152 0.015 0.0152 0.015 0.0152 0.0155 0.0164 0.0179 0.0198 0.0211 0.0185 0.0151 0.0108 0.0153 0.0205 0.0226 0.0209 0.0168 0.015 0.0152 0.0152 0.015 0.0152 0.014 0.013 0.0153 0.0211 0.0196 0.0172 0.0156 0.0152 0.0152 0.0152 0.0154 0.0155 0.0151 0.0136 0.0129 0.0159 0.0167 0.0156 0.0152 0.0148 0.0146 0.0152 0.0161 0.0168 0.017 0.0176 0.0153 0.0145 0.014 0.013 0.014 0.0151 0.0153 0.0152 0.0152 0.0152 0.0152 0.0152 0.0152 0.0152 0.0149 0.0146 0.0146 0.0145 0.0152 0.0151 0.015 0.0149 0.0152 0.0174 0.0194 0.0203 0.0205 0.0205 0.021 0.0226 0.0244 0.0284 0.0263 0.023 0.0207 0.0188 0.0172 0.0163 0.0159 0.0161 0.0165 0.0168 0.0184 0.0206 0.0252 0.0295 0.0304 0.0277 0.0247 0.0225 0.0204 0.0188 0.0181 0.0179 0.0157 0.016 0.0165 0.0178 0.0203 0.0233 0.0265 0.0311 0.043 0.0293 0.0209 0.0197 0.0213 0.0231 0.0247 0.0281 0.0305 0.0296 0.0241 0.0212 0.0196 0.0187 0.0181 0.0176 0.0169 0.016 0.0152 0.0152 0.0152 0.0148 0.0145 0.0142 0.0135 0.0125 0.0117 0.0114 0.012 0.013 0.0138 0.0144 0.0157 0.0167 0.0181 0.0191 0.0189 0.0167 0.0148 0.014 0.0139 0.014 0.0141 0.0142 0.0144 0.0146 0.0152 0.0152 0.0152 0.0152 0.0152 0.0152 0.0152 0.0152 0.0152 0.0152 0.0156 0.0158 0.016 0.016 0.0159 0.0156 0.0154 0.0153 0.0152 0.0148 0.0149 0.0152 0.015 0.0152 0.0153 0.0154 0.0152 0.0141 0.0135 0.0137 0.0141 0.0146 0.0152 0.0154 0.0152 0.0149 0.0151 0.0152 0.0156 0.0161 0.0165 0.017 0.0172 0.0176 0.0182 0.019 0.02 0.0214 0.0229 0.0257 0.0321 0.0424 0.0506 0.0576 0.0585 0.0537 0.0459 0.0374 0.0314 0.0292 0.0302 0.0313 0.0304 0.0288 0.0275 0.0264 0.0253 0.0238 0.0227 0.0216 0.0207 0.0199 0.0192 0.0188 0.0186 0.0185 0.0179 0.018 0.0183 0.0185 0.0185 0.0183 0.0181 0.0182 0.0187 0.0199 0.0219 0.026 0.0337 0.0424 0.0466 0.0473 0.0456 0.045 0.0449 0.0418 0.0359 0.0299 0.0267 0.0283 0.0304 0.0296 0.0263 0.0222 0.0173 0.0149 0.0136 0.0129 0.0125 0.0123 0.0139 0.0151 0.0159 0.0146 0.0158 0.0189 0.0211 0.0229 0.0266 0.0303 0.0317 0.0311 0.0307 0.0304 0.0294 0.0251 0.0207 0.0158 0.0135 0.0115 0.0084 0.0069 0.0067 0.0071 0.007 0.0088 0.0112 0.0131 0.0135 0.0129 0.0119 0.0108 0.0097 0.0087 0.008 0.0076 0.0075 0.0075 0.0073 0.007 0.0068 0.0068 0.0071 0.0073 0.0076 0.0077 0.0077 0.0077 0.0094 0.0113 0.0131 0.0145 0.0149 0.0145 0.0139 0.013 0.012 0.0109 0.0099 0.0089 0.0079 0.007 0.0062 0.0062 0.0062 0.0063 0.0063 0.0064 0.0064 0.0065 0.0065 0.0065 0.0065 0.0064 0.0064 0.0063 0.0063 0.0064 0.0064 0.0064 0.0064 0.0064 0.0064 0.0064 0.0064 0.0064 0.0064 0.0064 0.0064 0.0064 0.0064 0.0064
0.0152 0.0152 0.0152 0.0164 0.0166 0.0146 0.0121 0.0121 0.0121 0.012 0.0117 0.0118 0.0123 0.0133 0.0135 0.0149 0.0146 0.0143 0.0141 0.0136 0.0128 0.013 0.0131 0.0134 0.0136 0.0138 0.0141 0.0144 0.0147 0.015 0.0152 0.0152 0.0152 0.0157 0.0165 0.0174 0.0184 0.0195 0.0206 0.0216 0.0228 0.0235 0.024 0.0249 0.0266 0.0287 0.0306 0.032 0.0323 0.0317 0.0299 0.0264 0.0249 0.0241 0.0228 0.0202 0.0174 0.0152 0.015 0.0152 0.0155 0.0145 0.0115 0.0127 0.015 0.0156 0.0167 0.018 0.0191 0.0198 0.0201 0.0205 0.0211 0.022 0.0228 0.0231 0.0229 0.0228 0.0228 0.0228 0.0228 0.0228 0.0229 0.023 0.0228 0.0217 0.0199 0.017 0.0153 0.0146 0.0148 0.0149 0.0148 0.0148 0.0149 0.015 0.0153 0.0159 0.0164 0.0168 0.0163 0.0154 0.0142 0.0106 0.0143 0.0204 0.0231 0.0226 0.0198 0.0157 0.0152 0.0152 0.0153 0.0176 0.0195 0.0128 0.0166 0.0192 0.0181 0.0164 0.0152 0.0152 0.0152 0.0152 0.0153 0.0154 0.0154 0.0149 0.0128 0.0134 0.0142 0.0147 0.0152 0.0152 0.0148 0.0154 0.0175 0.0179 0.0171 0.0161 0.014 0.0129 0.013 0.0149 0.0167 0.016 0.0153 0.0151 0.0151 0.0151 0.0152 0.0152 0.0152 0.015 0.0147 0.0145 0.0144 0.0148 0.0152 0.0152 0.0152 0.0152 0.0155 0.0184 0.0207 0.0212 0.0207 0.0203 0.0208 0.0226 0.026 0.0348 0.0304 0.0239 0.0199 0.0174 0.0161 0.0156 0.0156 0.0159 0.0164 0.0166 0.0195 0.0212 0.0288 0.0333 0.0293 0.0243 0.0211 0.019 0.0171 0.0155 0.0153 0.0157 0.0152 0.0154 0.0157 0.017 0.0205 0.0244 0.0271 0.028 0.028 0.019 0.0187 0.021 0.0236 0.0265 0.0263 0.0306 0.0337 0.0304 0.0241 0.0207 0.0188 0.0177 0.0169 0.0164 0.0159 0.0154 0.0151 0.0151 0.0152 0.0152 0.0154 0.0153 0.0144 0.0131 0.0119 0.0113 0.0117 0.0131 0.0146 0.0163 0.0181 0.0197 0.0212 0.0222 0.0219 0.0178 0.0156 0.0146 0.0143 0.0143 0.0144 0.0146 0.0148 0.0152 0.0148 0.0149 0.015 0.0151 0.0152 0.0152 0.0152 0.0152 0.0152 0.0152 0.0154 0.0156 0.0157 0.0158 0.0157 0.0155 0.0153 0.0152 0.0151 0.0148 0.0146 0.0145 0.0145 0.0147 0.0152 0.0156 0.0156 0.0151 0.0134 0.0137 0.014 0.0144 0.0152 0.0152 0.0147 0.0148 0.0152 0.0153 0.0156 0.0162 0.0168 0.0175 0.0182 0.0192 0.0201 0.0211 0.0224 0.0229 0.0246 0.0279 0.0337 0.043 0.0478 0.0489 0.048 0.0444 0.0392 0.0327 0.0298 0.0302 0.0325 0.0335 0.0306 0.0286 0.027 0.0257 0.0245 0.0229 0.0224 0.0215 0.0205 0.0196 0.0189 0.0182 0.0182 0.0181 0.0177 0.0179 0.0183 0.0185 0.0185 0.0182 0.0179 0.0178 0.018 0.0188 0.0205 0.0247 0.026 0.0337 0.0424 0.0462 0.0426 0.0413 0.0405 0.0447 0.0404 0.0337 0.0295 0.0256 0.0273 0.0249 0.0237 0.0209 0.0161 0.0143 0.0133 0.0129 0.0125 0.0128 0.0135 0.014 0.0139 0.0133 0.0139 0.016 0.0197 0.0237 0.0293 0.0337 0.0338 0.0315 0.0304 0.0307 0.0297 0.025 0.0195 0.0145 0.0117 0.0096 0.0076 0.0067 0.0067 0.0069 0.0086 0.0105 0.0129 0.0151 0.0148 0.0138 0.0126 0.0113 0.0101 0.009 0.0081 0.0076 0.0075 0.0075 0.0073 0.007 0.0067 0.0069 0.0071 0.0074 0.0076 0.0077 0.0076 0.0076 0.0093 0.011 0.0125 0.0136 0.014 0.0138 0.0132 0.0124 0.0115 0.0106 0.0096 0.0087 0.0078 0.0069 0.0061 0.0061 0.0061 0.0062 0.0062 0.0063 0.0064 0.0064 0.0064 0.0064 0.0064 0.0063 0.0062 0.0062 0.0063 0.0063 0.0064 0.0064 0.0064 0.0064 0.0064 0.0063 0.0063 0.0063 0.0063 0.0063 0.0063 0.0063 0.0064 0.0064
